ply
format ascii 1.0
comment Generated by nuScenes dev-kit
element vertex 1072
property float x
property float y
property float z
property uchar red
property uchar green
property uchar blue
end_header
1.02044169 -30.66886393 5.23165488 49 61 58
1.06576538 -30.70593262 5.94870043 31 38 29
1.09414673 -30.64567057 6.02686183 45 56 42
1.05426704 -30.34259711 0.27130004 98 100 90
0.98622640 -30.19374593 2.64869054 27 34 29
1.06208293 -30.41630046 3.04103629 67 75 66
1.02578735 -30.37275391 3.63063388 56 66 58
1.12268066 -30.43469238 3.70099044 75 85 75
0.97361450 -30.19196777 4.97205038 50 56 48
1.03158804 -30.28404823 5.16737146 46 57 54
0.96083577 -30.36474609 5.59803200 71 82 72
1.16500854 -30.25122070 5.99936295 38 46 36
1.04217529 -29.90502930 0.26365301 88 85 74
1.06004639 -30.08013916 3.58557353 64 74 64
1.19360352 -30.08239746 4.02653837 38 46 32
1.07189941 -30.00352783 5.00827971 41 47 41
1.09167480 -30.01110840 5.13436294 48 58 50
1.20184326 -29.97558594 5.93284845 45 52 43
1.07901001 -29.62963867 0.27827550 79 76 66
1.19454956 -29.79089355 2.71813011 29 32 28
1.17758179 -29.79724121 2.98797655 57 65 51
1.09144287 -29.80059814 5.05036955 42 49 46
1.10501099 -29.78898926 5.13953571 57 69 66
0.96197510 -29.40545654 0.27360168 70 67 54
1.02231598 -29.21343994 0.27120141 66 63 54
1.15802002 -28.89135742 0.30139038 80 81 73
1.11591884 -28.54174805 0.31589129 104 102 92
1.05966797 -28.55107422 6.10291538 44 45 38
1.06589355 -28.31772461 0.28401897 96 96 87
0.94297180 -27.91193848 0.14814740 116 118 112
1.01641846 -27.97230748 0.26426407 106 108 100
1.07794189 -28.03942871 6.36631060 45 53 39
1.01558817 -27.72575010 0.18060363 116 118 112
1.04819641 -27.73452148 0.26709635 105 106 100
1.16186523 -27.65954590 4.48852158 71 89 75
1.16064072 -27.67799377 4.70697027 63 72 60
1.08526611 -27.76013184 4.85131900 63 74 65
1.14537326 -27.41829057 0.17932694 93 93 86
1.15698242 -27.48334961 0.28350262 112 112 102
1.07649740 -27.50817871 4.51044035 68 85 70
1.07805692 -27.47629019 4.70660617 58 67 58
1.12963431 -27.45373535 4.91748101 51 59 50
1.13986206 -27.42095947 5.17587090 46 54 44
1.06120605 -27.14516602 0.10396658 128 131 128
0.98164673 -27.19196777 4.75552750 56 65 52
1.08763631 -27.17411296 4.95697419 47 56 46
1.11434937 -27.21203613 5.16158199 52 61 52
1.04482160 -26.88657924 0.11448078 129 133 130
1.04947369 -26.56781475 0.13180217 142 147 147
0.92260742 -26.49353027 5.83921099 48 54 45
1.08377075 -26.35050456 0.12879517 131 132 128
1.15112305 -26.31237793 5.22932053 54 64 54
1.11426544 -26.35839844 5.89884791 45 52 43
1.12277222 -26.22729492 6.03530836 39 46 38
1.06796265 -25.95544434 0.14570925 132 119 99
0.93000793 -25.90545654 3.76477766 48 56 50
1.04290771 -25.93322754 4.49262333 77 87 77
1.13413620 -25.98437500 5.03501350 57 66 57
1.09371948 -25.92431641 5.12618065 56 64 58
1.02021790 -26.09915161 5.86942196 43 50 42
1.00814819 -26.06677246 6.00280809 52 59 50
1.07804565 -25.69943848 0.13670551 122 114 104
1.08023071 -25.79412842 4.49170256 69 80 66
1.05101231 -25.65180315 4.71307087 48 60 49
1.00198771 -25.76550293 4.99057299 52 61 53
0.96529643 -25.79311117 5.24171146 62 74 70
1.10220337 -25.71997070 5.96923780 42 49 39
1.06846619 -25.36581421 0.14129454 123 119 113
0.99783325 -25.29357910 3.93510842 54 64 54
0.94444275 -25.31158447 4.14669585 68 78 61
1.00769043 -25.42526855 4.49560509 63 70 60
1.04834343 -25.44428208 4.65130203 48 57 47
1.15011088 -25.49379476 4.87179065 52 60 52
1.08447266 -25.50888062 5.85916221 46 52 45
1.09439087 -25.33489990 6.28956318 36 43 34
1.08705750 -25.06340332 0.15671692 117 114 104
1.05646073 -25.17679636 3.89445044 44 50 43
1.01890055 -25.20147705 4.07421001 50 60 49
1.16006470 -25.27691650 4.68594027 46 58 44
1.07235718 -25.20617676 5.94366789 45 52 44
1.08651123 -25.19880371 6.07558699 41 48 40
1.15126038 -25.19184875 6.39200491 48 52 44
1.06101520 -24.87240835 0.16606092 132 133 130
1.10807800 -24.79925537 3.88710451 38 41 35
1.17085266 -24.90826416 5.91256094 43 50 40
1.14739990 -24.91632080 6.09322858 40 47 39
1.04909261 -24.88376872 6.35840162 51 56 49
1.05079269 -24.60787964 0.16012602 128 131 128
1.15421471 -24.49923941 4.48911883 36 43 34
1.15149943 -24.48264567 4.56797942 43 55 44
1.02133179 -24.44665527 4.92494593 63 75 66
1.03799269 -24.55590142 5.88386048 43 49 41
1.02678571 -24.57336426 6.05889852 39 46 38
1.04518890 -24.59487915 6.32748008 54 57 50
1.05620575 -24.47695923 6.63688123 57 60 54
1.10097122 -24.23526001 0.16728999 130 132 129
1.07391080 -24.28815252 3.88461437 42 48 40
1.02905450 -24.24071796 4.08601986 45 55 45
1.06348633 -24.27150879 4.41126019 51 59 49
1.03565470 -24.28577677 4.73729583 51 60 52
1.03707143 -24.22042269 4.94454194 46 54 44
1.07465709 -24.26342773 5.14981322 53 63 50
0.92324829 -24.37756348 5.85693359 42 43 35
0.94656372 -24.42211914 6.00551796 48 54 46
1.14063517 -24.32364909 6.52363396 57 61 51
1.12412516 -24.31109619 6.61154985 53 56 48
1.05763753 -23.97219510 0.16671035 123 125 121
1.07526809 -24.02376615 3.92818324 35 42 34
1.08068702 -24.04079183 4.06343874 46 55 45
1.03780424 -24.01694899 4.31775698 55 66 55
1.10958354 -24.09224447 4.73381122 37 45 36
1.07286103 -24.08073332 4.97022196 43 52 40
1.05520630 -23.99902344 6.50023985 53 56 50
1.14890544 -23.95296224 6.66422621 44 50 42
1.06560601 -23.74906413 0.17099247 124 126 122
0.93821208 -23.61592611 6.01330169 42 49 41
1.00452968 -23.68150984 6.36700136 57 62 56
1.05557528 -23.45381303 0.17692174 122 117 112
1.04898943 -23.15677316 0.18156232 126 102 95
1.05603485 -22.87603149 0.16815387 136 106 92
1.06056800 -22.57703576 0.20610015 153 102 81
1.06330160 -22.25138346 0.20441496 155 110 90
1.08724976 -22.01167515 0.22709571 186 151 138
0.98269653 -21.99157715 0.24565228 209 207 208
1.08119583 -21.69831848 0.22458527 122 115 112
0.95053101 -21.61059570 0.24533650 142 135 132
1.16679891 -21.73506673 6.53180631 45 52 46
1.11373393 -21.74928792 6.59329677 46 52 48
1.07828267 -21.43001302 0.22076997 110 107 102
1.02733358 -21.40559896 0.24740912 130 123 120
1.18124390 -21.52380371 6.61341906 44 50 49
1.09477234 -21.14569092 0.21775757 100 100 93
1.04728699 -21.11421204 0.25226218 134 131 126
1.07736206 -20.87902832 0.22132167 103 101 95
1.08255768 -20.81149292 0.25304386 140 137 133
1.10832520 -20.54377441 0.19838055 115 91 80
1.07105509 -20.57206217 0.25474385 80 55 42
1.07764816 -20.29014587 0.19224469 100 95 80
1.07040405 -20.22382813 0.24919366 133 134 128
1.05846686 -19.93896484 0.13908937 112 100 84
1.06027876 -19.93339321 0.26819043 172 174 173
1.04088847 -19.71394450 0.12945484 116 107 93
1.05911085 -19.71322293 0.27785560 186 190 190
1.06525768 -19.39743874 0.17530418 119 117 111
1.05383911 -19.42374674 0.26809715 175 176 176
1.08116070 -19.02925833 0.09727352 121 118 111
1.06133201 -19.11614435 0.26505797 175 175 175
1.11093273 -18.73183523 0.07961904 102 98 91
1.06062622 -18.76372070 0.25982820 164 166 166
0.98583832 -18.68706177 0.08318959 100 96 89
1.03101696 -18.52911932 0.26000987 113 103 94
1.05649719 -18.25046794 0.28414233 161 155 150
1.06692618 -18.01163737 0.27855148 169 139 125
1.05989583 -17.72481283 0.28487489 160 108 85
1.09446498 -17.39842878 0.28492591 139 140 138
0.96630859 -17.37023926 2.49655581 47 51 46
1.02664462 -17.06617321 0.22999084 80 68 56
1.06270752 -17.10898437 0.29906037 161 151 147
0.94610596 -16.98193359 1.36614525 117 90 71
1.03825109 -17.11076086 2.49516208 45 50 46
1.02806854 -16.94855754 0.24063015 68 58 45
1.09778409 -16.86486157 0.26867282 92 78 69
1.11702271 -16.87436523 0.80843829 135 125 110
1.14099121 -16.69543457 0.82012868 115 112 106
1.05523246 -16.86769322 1.36930643 111 76 67
1.04367320 -16.82960002 1.92930100 50 55 49
1.05417425 -16.78747004 2.49775520 36 45 43
1.01507568 -16.91564941 3.05217099 100 100 101
1.04098776 -16.51538617 0.30494594 173 139 125
1.12783813 -16.48364258 0.83525169 76 76 65
1.05257797 -16.48190308 1.38687111 111 87 72
1.05238597 -16.55345662 1.93515339 67 70 64
1.10027204 -16.59838867 2.49832119 26 36 35
1.07651774 -16.24403212 0.29909800 137 134 131
1.15650024 -16.30053711 0.84809351 89 88 78
1.14901733 -16.40588379 1.38944221 107 82 62
1.06756592 -16.22265625 1.39969791 117 92 76
1.06665293 -16.26443481 1.94202759 82 81 81
1.03302002 -16.14270020 2.49334931 50 53 49
1.06119453 -16.30581326 3.03831058 108 109 106
1.07619286 -15.96591187 0.31382019 160 151 145
1.15265503 -15.98691406 0.87106051 73 63 61
1.06729126 -15.99758911 1.41109715 101 78 62
1.08453115 -15.99158732 1.94941103 78 72 76
1.12440999 -15.94685872 2.49180476 52 60 55
1.07296475 -15.99519487 3.03066525 106 107 105
1.06804070 -15.69592285 0.32819147 164 144 134
1.18849945 -15.68167114 0.89203475 55 50 46
1.05425471 -15.63031561 1.42805818 83 68 54
1.06934768 -15.70649602 1.95631509 86 80 84
1.05391846 -15.67519531 3.02471900 105 105 102
1.07674115 -15.38665771 0.33593597 126 119 113
1.06190892 -15.41283537 1.43938194 92 78 65
1.05274658 -15.50041504 1.96119666 83 84 82
1.05680084 -15.37199402 1.96467356 85 87 84
1.06718699 -15.42562866 2.50103966 53 61 58
1.06154691 -15.40916091 3.02043390 72 77 75
1.06849917 -15.11921150 0.33374048 169 129 114
1.03809950 -15.13655599 1.45392527 69 59 52
1.05453491 -15.12558218 1.97222437 82 85 81
1.07223729 -15.12656948 2.50057135 32 40 37
1.05472037 -15.10887733 3.01409707 58 64 63
1.07062276 -14.84064128 0.33252978 179 162 154
1.09678955 -14.87868652 1.46591842 61 55 50
1.02931124 -14.79234404 1.98311074 73 73 72
1.09074783 -14.87731934 2.49976468 36 42 44
1.02499112 -14.78603294 3.00773237 73 76 74
1.07473868 -14.52648700 0.36162070 167 136 123
1.01848873 -14.47773595 1.48738336 81 77 71
1.06226095 -14.54865955 1.98846835 61 62 60
1.02618069 -14.55185276 2.49891761 48 50 51
1.08007716 -14.56482515 3.00320186 92 93 90
1.08115012 -14.26928323 0.37388722 149 137 128
0.92852783 -14.35534668 0.98840737 101 57 39
1.09530867 -14.31345470 1.49397346 116 106 94
1.10613287 -14.31602841 1.99157331 86 86 81
1.05983543 -14.21450806 2.49454911 30 34 35
1.05252733 -13.94840495 0.35993244 164 154 150
1.10943604 -14.06105957 2.49242897 43 40 48
1.06632177 -13.69843325 0.36465988 172 154 147
1.07107631 -13.40660924 0.37097527 162 161 159
1.06672280 -13.11223477 0.38133372 165 163 162
1.06126584 -12.83611076 0.38316502 173 172 170
1.04867768 -12.53352261 0.39260306 168 166 163
1.07243797 -12.27035237 0.39535948 160 159 155
1.05927176 -11.96836392 0.39688026 151 145 141
1.05818001 -11.68245793 0.40197283 147 139 134
1.08741880 -11.42204271 0.39964806 148 138 131
1.06267452 -11.10507838 0.40195088 149 127 118
1.06526074 -10.82455461 0.41692381 150 139 133
1.08643989 -10.55910673 0.41586129 143 139 136
1.06153331 -10.24783684 0.41868581 145 144 141
1.07594414 -9.96212234 0.42694430 152 148 145
1.08990987 -9.69163717 0.43048243 151 147 143
1.07725475 -9.41033734 0.43215818 151 141 135
1.07545980 -9.07804362 0.46665718 162 144 135
1.17356170 -9.04084308 0.68090204 200 131 104
1.19839527 -9.05536479 0.87421642 200 161 145
1.10955043 -8.84426427 0.44273031 141 133 128
1.18815758 -8.94360352 0.59829672 170 110 85
1.20100403 -8.93035889 0.85439223 100 81 72
1.06565804 -8.54516882 0.39758281 124 116 111
1.06307882 -8.26540571 0.31576319 105 101 94
1.06088917 -7.96253926 0.43657931 121 120 116
1.06946748 -7.71355149 0.43251827 100 93 85
1.05267796 -7.40330182 0.44057417 102 96 90
1.07932762 -7.08746564 0.44500164 93 81 72
1.06002953 -6.80633981 0.48365811 102 89 79
1.06412537 -6.50864014 0.47583348 102 76 63
1.04456561 -6.24019734 0.49693196 97 93 85
0.95904541 -6.10241699 0.54156637 108 106 89
1.07592095 -5.94157482 0.49020174 84 74 63
1.04214628 -5.87041536 0.65204140 89 78 67
0.95072129 -5.86748190 0.92988256 121 113 110
1.01126208 -5.67856620 0.47024815 98 86 77
1.05318229 -5.77175805 0.68306293 93 74 61
1.15936366 -5.72228428 1.00225211 110 99 85
1.15865860 -5.68302511 1.26235843 117 100 83
1.18964504 -5.67030445 1.46149604 147 130 105
1.01406011 -5.43064708 0.44550669 102 93 84
0.99773153 -5.36694336 0.53314237 117 116 110
1.19133504 -5.52197266 1.36395995 70 67 52
1.10821144 -5.04122096 0.47470613 115 90 79
1.15206920 -5.07772917 0.63590568 130 101 89
1.17099813 -5.10803630 1.02887964 113 100 90
1.09328184 -4.82861526 0.49517582 103 100 92
1.09403186 -4.82750617 0.55382299 120 104 94
1.18481445 -4.94091797 0.82090122 130 130 118
1.08587349 -4.52800472 0.47828234 97 96 89
1.05654985 -4.52080829 0.53829355 120 120 113
1.06461839 -4.23167290 0.46300295 96 94 86
1.06956296 -4.23994557 0.54040754 121 120 114
1.05668425 -3.95656618 0.45737633 94 92 85
1.06538127 -3.95888672 0.54273169 122 121 114
1.06112626 -3.66524248 0.41287112 99 97 89
1.07177442 -3.66191540 0.54541920 122 121 115
1.06205298 -3.38883349 0.47100283 92 91 84
1.06577256 -3.38348030 0.55054895 124 123 117
1.06540994 -3.08927409 0.47448256 94 92 85
1.06268680 -3.09725120 0.55539789 150 148 142
1.06777786 -2.79370341 0.47051447 111 109 101
1.06513451 -2.80364990 0.55981635 154 151 146
1.05666595 -2.50803673 0.47401159 113 111 103
1.06665974 -2.51093711 0.56610895 146 144 137
1.06027043 -2.25986450 0.43568413 119 116 106
1.05508288 -2.23239315 0.57116158 133 130 123
1.07278558 -1.93615877 0.48234074 98 95 86
1.06818063 -1.95047607 0.57261490 134 131 124
1.06009425 -1.65816205 0.48608013 99 95 86
1.06773690 -1.66214784 0.57639881 134 130 123
1.06812296 -1.36582514 0.48576843 98 95 87
1.06325792 -1.37207031 0.58057021 132 129 122
1.06041958 -1.11712334 0.46077476 99 96 88
1.05104026 -1.07863050 0.58498250 133 130 123
1.06439645 -0.78896726 0.49242507 97 94 86
1.06504028 -0.80127767 0.58858325 135 131 125
1.06709783 -0.50319127 0.49094232 99 96 87
1.05675145 -0.52297974 0.59219956 137 134 127
1.06073400 -0.24158466 0.47064384 103 99 90
1.06719556 -0.22701160 0.59404906 139 135 128
1.06499820 0.05742843 0.50495515 99 96 86
1.06546810 0.05544097 0.59829670 136 132 125
1.05227661 0.09672038 0.96063224 41 48 58
0.94876099 0.18762207 1.23923206 69 74 73
1.09180113 0.38463575 0.49755247 102 98 89
1.08161379 0.33774322 0.60502785 133 129 121
1.06240845 0.29792132 0.97730666 61 65 70
1.07876587 0.42181396 1.21938372 67 76 75
1.08395386 0.32012939 1.45380428 148 150 151
1.06148217 0.54280442 0.49035501 103 99 90
1.07098452 0.62689209 0.61421783 117 113 108
1.04191971 0.61349487 0.99249667 94 96 92
1.06252543 0.61767578 1.23204480 64 68 74
1.07048416 0.59580994 1.46436952 158 158 158
1.06753720 0.92330804 0.51942036 100 97 87
1.06057116 0.92578125 0.61141155 114 111 106
1.07520403 0.92757743 0.99886698 109 107 107
1.04751587 0.91317313 1.23449104 65 68 82
1.06452433 0.93107096 1.46987058 186 182 184
1.04425016 1.18830431 0.50496617 102 96 87
1.03580763 1.20978083 0.59911793 114 111 105
1.03680420 1.18678792 1.00513031 112 112 112
1.05711147 1.17660086 1.24316161 99 102 106
1.03440552 1.18061523 1.47293136 197 193 196
1.13356741 1.52883215 0.52705772 97 94 85
1.03028319 1.49415573 0.57847558 108 105 97
1.06671143 1.47757975 1.00655430 97 98 97
1.07438006 1.47984096 1.24500264 180 180 180
1.03715515 1.48641357 1.47683678 199 196 197
1.04261675 1.75484432 0.51756057 94 90 80
1.03319813 1.76221813 0.60876679 114 111 103
1.03364868 1.74260254 1.01549439 83 85 84
1.05781555 1.79258728 1.24947362 146 141 147
1.06002808 1.79988098 1.50063701 195 193 193
1.17152258 2.18660758 0.52532746 94 90 79
1.07381419 2.06995289 0.60485512 131 128 121
1.03802151 2.05859375 1.02918681 94 97 96
1.07554457 2.06103516 1.26151129 74 70 77
1.04768510 2.06293279 1.53249740 184 182 184
1.02250163 2.06591797 1.93301074 174 180 182
1.09619417 2.22467416 0.52819113 105 102 92
0.99774498 2.28272873 0.53832130 128 125 115
1.12969208 2.35775757 1.03970245 104 110 111
1.06172689 2.32934570 1.27231654 73 69 79
1.06393051 2.33099365 1.53301227 189 185 187
1.04007568 2.34191895 1.93636563 184 189 187
1.06628990 2.64188131 0.64492926 127 122 117
1.13323975 2.59515381 1.04394162 122 122 120
1.08010864 2.61477661 1.27702086 94 90 102
1.09854126 2.60449219 1.52004416 201 195 197
1.08357893 2.62393624 1.93428702 171 176 176
1.04342424 2.92697098 0.64663902 128 125 121
1.01834106 2.91625977 1.04173622 121 115 113
1.06624756 2.89799805 1.28570166 155 151 152
1.05057635 2.90257045 1.52816156 203 201 200
1.05763463 2.91878836 1.93302887 147 153 157
1.05482441 3.20418803 0.64878332 139 135 131
1.04084778 3.20705160 1.03877823 121 117 116
1.04943237 3.20998535 1.27208176 137 135 136
1.05064901 3.19669596 1.52336163 192 191 188
1.09272385 3.21286011 1.90234753 132 137 140
1.05959312 3.49237767 0.64893758 138 133 128
1.08821760 3.48979841 1.03351787 128 127 129
1.11569214 3.51403809 1.26247519 95 95 95
1.08220128 3.50090681 1.50274461 163 162 157
1.05706278 3.47025553 1.76755071 129 133 134
1.06640063 3.77945910 0.65066867 132 128 122
1.07534790 3.75468750 1.02045748 108 109 112
1.04200236 3.69942220 1.26393771 109 108 107
1.10308228 3.78356934 1.49947898 141 139 135
1.11987915 3.76120605 1.74219728 113 116 119
1.05859311 4.06603368 0.65419868 135 129 124
1.10963949 4.00695801 1.00762995 103 102 109
1.13435872 4.02718099 1.25395672 119 119 119
1.15298462 4.04943848 1.49504632 118 118 113
1.00184123 4.06315104 1.69714824 91 90 92
1.05804552 4.36070760 0.65608336 137 131 127
1.17166138 4.25939941 0.99561495 81 81 98
1.13322144 4.33356934 1.69971488 124 124 124
1.06454724 4.64449817 0.66256977 140 134 129
1.13201904 4.62646484 1.69756877 96 96 96
1.05545455 4.92169944 0.66676870 142 135 131
1.06442232 5.21125419 0.67073315 146 140 135
1.06276646 5.51255968 0.67991854 151 146 139
0.93661499 5.62341309 0.89052188 177 157 163
1.06022569 5.78415167 0.71481504 135 130 123
0.96018186 5.82989502 0.86032444 142 139 132
1.01484196 5.90035192 1.23010588 104 94 86
1.11118918 6.04583094 0.73753166 118 114 107
0.99307058 6.09280685 0.94241439 137 133 126
1.01723458 6.01738574 1.27785422 111 107 101
0.96145444 6.10084055 1.55781233 108 105 100
0.96094353 6.08716104 1.71032648 145 141 136
1.17410093 6.28267045 0.75090776 114 111 103
1.07990525 6.32882942 0.94718938 135 132 124
1.10134379 6.26455078 1.32835738 143 140 134
0.96035521 6.38799822 1.57913386 108 103 94
0.98851013 6.40855577 1.68714619 167 159 151
1.18511963 6.73815918 0.70708132 139 136 129
1.09817505 6.51086426 0.94391203 138 135 128
0.95664601 6.52689754 1.60034476 113 108 99
1.01585049 6.52437337 1.68497436 151 143 135
1.17087555 6.92205811 0.71020834 136 132 125
1.14329260 7.21088724 0.68472483 140 135 129
1.09460943 7.49334426 0.73600059 124 120 111
1.05559870 7.53586945 0.86662199 136 128 121
1.18628777 7.68631321 0.76904880 94 90 86
1.07821336 7.78137974 0.87963586 172 160 153
1.05597108 8.09174613 0.89224982 193 180 173
1.06086590 8.35898109 0.89136646 189 177 171
1.07250105 8.64646445 0.88175445 178 168 160
1.08943039 8.93091133 0.88886296 179 169 163
1.11236514 9.14814406 0.92386054 194 182 182
1.15311224 9.54516602 0.87112944 220 213 210
1.18086243 9.67382812 0.87719002 200 193 187
0.96982247 10.39521136 0.65828617 206 197 193
1.01447632 10.68154785 0.65175780 184 179 174
1.05639499 10.94634292 0.64867452 178 173 169
1.05304046 11.20974580 0.64116769 152 142 139
1.05941772 11.50417636 0.63799397 134 125 121
1.06143589 11.77938935 0.63412696 131 129 126
1.06910444 12.09187086 0.63214428 146 141 136
1.05288337 12.37397636 0.62333245 150 146 141
1.00444034 12.72412900 0.62037788 153 151 150
0.95333234 12.72880644 0.99868709 120 121 122
0.97193909 12.78082275 1.21544594 94 96 98
1.09484863 12.73883057 1.67103785 100 104 108
1.07317527 12.84782446 0.61654017 156 156 156
1.02189159 12.95195198 0.93651354 124 124 124
1.01901899 12.98327201 1.20426778 42 46 48
0.98344523 12.97124837 1.58424174 73 75 77
0.94026693 13.02148438 1.78005675 66 66 66
1.06697841 13.23366978 0.63174792 144 142 140
1.13423035 13.19820068 0.94081009 89 91 91
1.13866216 13.23629483 1.13685066 60 62 62
1.09358802 13.21213003 1.59017860 116 118 119
1.00382805 13.25910187 1.82737141 72 74 74
0.95354789 13.27258301 2.07382437 77 74 74
1.06210807 13.49554421 0.61312752 148 148 148
1.12935638 13.42956543 1.08437508 74 76 76
1.06256539 13.42372349 1.24429347 48 52 54
1.11979866 13.46143341 1.52543671 96 99 101
1.08917018 13.53348650 1.82159799 105 109 111
1.04069010 13.52464193 2.06066357 74 77 77
1.06111520 13.81538966 0.61478190 141 137 133
1.08137512 13.84747314 0.99686092 112 112 114
1.16600037 13.73248291 1.20533133 48 52 54
1.07498678 13.91644287 1.51337574 137 137 138
1.13778992 13.80507812 1.80746343 81 88 90
1.15402603 13.80009460 2.04906118 80 86 88
0.98803004 14.18365743 0.61132476 149 148 147
1.04765701 14.00285339 1.79192302 92 95 100
1.04041341 14.09186198 2.19426452 75 78 77
1.08167280 14.26581489 0.61315731 149 148 147
1.06950240 14.40005771 1.55385570 73 74 70
1.17184448 14.43249512 1.82369554 108 114 113
1.09502869 14.28759766 2.19941838 81 76 74
1.06132800 14.67804215 0.60878483 145 138 134
1.07513936 14.54524740 2.18910340 88 81 79
1.06000935 14.94562322 0.61150315 133 127 123
1.04235077 14.88198853 0.99301752 126 124 118
1.07718506 14.87583008 1.27481389 86 87 85
1.10749435 14.86747742 1.51843433 82 81 78
1.09657288 14.94110107 1.78309608 133 120 108
1.05429687 14.85959473 2.17827506 83 84 80
1.06209872 15.19173773 0.60745341 140 136 132
1.15025838 15.31746419 1.27277541 78 77 76
1.16213989 15.37231445 1.54400516 89 90 82
1.06571198 15.26370239 2.16603041 87 89 85
1.07064071 15.51634130 0.61257045 140 130 126
1.01541138 15.41760254 1.32641637 56 62 60
1.00215149 15.47525024 1.53039214 86 84 79
1.16165161 15.60229492 1.73569310 135 131 121
1.06041497 15.82800157 0.60306634 144 137 134
1.11679077 15.88793945 1.27193075 87 85 88
1.14179484 15.91267904 1.49066861 76 72 75
1.04331207 15.86343384 1.71452248 111 104 90
1.07591756 15.74971517 2.15352392 95 90 83
1.05409523 16.12944200 0.60666077 121 118 114
0.93688965 16.05798340 1.47231650 81 82 76
1.07559204 16.10898437 1.78725986 80 78 73
1.13879395 16.21411133 2.14192557 91 85 84
1.06140686 16.37547422 0.59813905 140 136 132
1.06921387 16.44909668 0.96487188 119 118 113
1.11593628 16.44067383 1.20451546 48 54 55
1.14334106 16.47509766 1.67099094 60 65 59
0.98543294 16.36881510 1.90620553 120 113 107
1.05780096 16.66619608 0.60766316 141 136 132
1.12297567 16.65586344 1.89347927 77 75 74
1.05583845 16.94435919 0.60728694 138 133 128
1.17825317 16.94372559 1.38966858 52 57 58
1.15472412 17.07238770 1.62677228 47 60 59
1.06602783 17.22207031 0.60309722 134 130 125
1.16671753 17.20605469 0.85637319 128 122 124
1.06256913 17.55473982 0.60436925 106 105 101
1.06350872 17.78518813 0.60159055 127 125 120
1.05812190 18.10004601 0.60450227 133 130 124
1.06756490 18.37172445 0.59997567 133 130 125
1.06086879 18.67531266 0.59789311 130 126 121
1.05867004 18.94663239 0.59713390 132 129 124
1.06874151 19.28661048 0.60361060 88 90 88
1.08590473 19.65089521 0.60248643 124 121 116
0.99357843 19.68807411 0.59922582 123 120 115
1.06133551 20.11452123 0.60159175 118 115 111
1.06171526 20.41895113 0.60858549 115 113 109
1.06786416 20.67451061 0.59528813 115 113 109
0.92162069 20.81264242 1.10041060 58 58 58
0.92382812 20.79980469 1.10367060 61 61 61
1.05362047 20.95208740 0.60202239 109 110 104
0.97442563 20.96513482 1.07605959 57 59 58
0.97124344 20.98239586 1.27425137 54 56 56
0.96425521 20.98821597 1.42055378 67 67 66
1.14938424 21.09675182 1.74168146 66 64 70
1.07045944 21.24866175 0.59726751 103 103 99
1.08301544 21.24874148 1.04315370 59 59 58
1.08023192 21.26977539 1.31310407 60 60 59
1.05725591 21.23891825 1.41759805 68 68 66
1.11727302 21.17282053 1.73689162 84 83 84
1.08644726 21.54553675 0.69101680 74 71 67
1.17369245 21.47454095 1.01959969 60 61 58
1.16556935 21.48881034 1.36623266 67 67 65
1.10265383 21.48788409 1.51583491 68 70 69
0.96862793 21.44936652 1.72462749 93 95 94
1.08211594 21.58690796 7.28092320 80 86 86
1.07522583 21.56981529 7.53966358 124 130 132
1.07071083 21.57645456 7.80884932 126 130 133
1.07825073 21.56687012 8.11353123 126 130 132
1.06593759 21.58174351 8.34269428 124 130 132
1.09566650 21.59233398 8.63037567 63 71 79
1.14568381 21.73830531 0.66142449 67 71 70
1.18453979 21.92800293 1.59095759 129 128 133
1.01803589 21.81503296 7.18490267 60 66 66
0.96353149 21.69691976 7.54901322 119 125 128
0.93292236 21.68554688 7.94042826 118 121 123
0.95355225 21.69201660 8.15063477 117 123 124
0.99698385 21.83319092 8.47449875 118 124 127
1.08879852 21.83584595 8.61539221 65 74 79
1.03462681 22.12300713 0.60952600 70 73 72
1.06533813 22.13084194 7.17195347 60 66 64
0.97509766 22.17279053 8.98177910 87 90 89
0.96447371 22.28726738 0.60047568 61 66 65
1.05316467 22.36560059 7.16143427 60 65 64
1.07038879 22.26763916 8.90535307 64 68 68
1.01622772 22.65594482 0.60116555 56 60 63
1.07780457 22.64947510 7.14522171 70 70 70
1.01791382 22.95548503 0.60268603 46 48 53
1.04722290 22.95935059 7.15150642 69 69 69
1.07604980 23.30987549 0.60627460 46 48 52
1.02993774 23.22860718 7.16155243 70 70 70
1.09153239 23.57393392 0.60032097 47 49 53
1.01397705 23.54409790 7.16577744 68 71 68
0.96932983 23.75952148 0.59636024 38 42 46
1.06722412 23.85092773 7.16677151 67 70 66
1.01725769 24.00860596 0.60226253 38 40 43
1.05035782 24.11393738 7.16919839 68 71 68
1.05824585 24.38757324 7.18490314 63 67 65
1.08270264 24.63340541 7.18300642 64 68 66
1.07038574 24.92143555 7.17508698 67 70 68
1.06151581 25.22560120 7.18131715 71 71 71
1.06832014 25.51317487 7.18322246 71 71 69
1.17001343 25.84747314 0.55905104 46 52 50
1.05610657 25.83233643 7.18371768 70 71 67
1.13162740 26.12044271 0.55611662 98 92 88
1.05600281 26.11108398 7.17897968 70 71 67
1.06609169 26.52297150 0.56341694 119 113 105
1.06982422 26.43917847 7.18257719 68 70 66
1.11471079 26.54713554 0.56321229 117 112 103
1.04501343 26.67731585 7.17831421 67 71 68
1.06316291 26.96327040 7.17879256 68 71 70
1.10094961 27.37549845 0.95865799 107 98 93
1.04624176 27.28899129 1.43924666 98 89 84
1.08281084 27.27057440 1.91313358 54 52 56
1.04909515 27.37789917 2.38556015 68 72 69
1.06053695 27.25568840 7.21181512 70 72 69
1.09097290 27.46343994 0.95251900 108 100 94
0.98861694 27.41894531 1.91017222 57 56 53
0.97213745 27.43322754 2.38585806 85 83 78
1.07686564 27.45338135 7.19663959 71 74 69
1.17010498 27.89660645 0.73236446 60 68 71
0.93319702 27.71972656 7.17941427 58 66 59
1.14447893 28.11682129 0.74132926 63 70 72
1.07901001 28.21557617 0.89941694 114 111 106
1.07642280 28.17027452 1.39684055 103 101 97
1.08920670 28.19622803 1.88985111 60 59 62
1.13458252 28.22355143 2.38290175 78 86 87
1.09203339 28.40747070 0.75077234 79 82 81
1.11871338 28.33386230 0.89030051 97 86 84
1.03636932 28.30502319 1.88749790 71 70 70
0.96907043 28.31695557 2.38417840 60 66 68
1.09311523 28.66596680 0.75158100 67 73 72
1.05432129 28.78637695 0.85822964 97 90 90
0.99221802 28.76489258 1.87650645 113 111 92
1.03868866 28.65333557 7.18371248 63 67 63
1.07041829 28.98419596 0.76560459 41 51 50
1.09349365 29.00910645 0.84685681 112 106 103
1.05953979 29.03799438 1.36732403 83 84 79
1.10392543 28.93695940 1.88198927 99 93 83
1.02805001 29.02957589 2.39127190 85 82 82
1.03005545 29.02005441 7.18959386 60 65 63
1.06444804 29.22778320 0.77042964 94 96 93
1.00437164 29.32307943 0.82846814 126 122 117
1.09128346 29.25649845 1.35335682 94 97 84
1.09425002 29.26168119 1.86830100 97 95 85
1.12570190 29.13000488 2.39341927 88 86 82
1.14253889 29.22244699 7.18947683 59 66 64
1.01216634 29.59110514 0.78144807 117 115 110
0.92098999 29.43200684 0.82059509 127 123 116
1.09600220 29.52902832 1.33240671 88 90 87
1.02078857 29.48571777 1.86290677 75 75 73
1.04522705 29.44781494 2.38070714 80 78 73
1.00708008 29.68328857 7.21545196 62 69 66
1.00756327 29.86922879 0.77857142 121 121 115
1.06222966 29.73771087 7.23409600 64 69 66
0.95014780 29.99561783 0.78054906 123 124 118
1.05743408 29.98754883 7.20829010 64 67 66
1.00286943 30.46073530 0.74685399 115 116 111
1.12104458 30.69716286 0.72999975 121 120 114
1.14424133 30.69311523 7.19635534 56 60 56
1.00280762 30.85644531 7.19445515 64 67 59
1.06930542 31.18664551 7.20046902 59 64 56
0.95725874 32.47976407 6.58556561 60 65 56
0.97284885 32.79147949 6.01969325 70 72 64
0.98602295 32.69206746 6.46407839 59 65 56
0.95854187 32.69245605 6.58465319 60 66 57
1.10513306 33.09887695 5.96395969 73 74 67
1.06762105 33.00097804 6.05048084 79 80 74
1.02096558 32.88305664 6.54980946 64 68 55
1.09236006 33.28539595 5.48996419 62 67 60
1.12855225 33.15607910 5.96233730 81 82 76
1.10620828 33.21474554 6.06764708 91 91 85
0.93099976 33.17749023 6.33738613 54 61 59
1.06241913 33.47260742 5.56080799 64 67 60
1.09494527 33.43882243 5.70503736 52 58 51
1.04402890 33.50965417 6.06225685 69 70 64
1.08508301 33.96130371 5.04084444 78 77 71
0.93734741 33.90344238 5.43982363 69 73 65
0.99060059 33.92993164 6.07910013 78 78 75
1.11080933 34.15836589 0.77824585 64 68 61
1.00545867 34.19743812 4.93801941 93 95 89
0.98934937 34.25024414 6.43602753 55 64 60
1.07400982 34.39535757 0.77316285 49 55 52
1.00415200 34.35742188 4.96470444 82 80 75
1.17354769 34.33573955 5.57527862 65 66 62
1.11235758 34.43004557 6.23162603 80 81 74
1.06806946 34.61987305 0.79055512 78 82 72
1.18666331 34.77897135 4.97512221 91 84 79
1.16015625 34.74198405 5.70625575 65 68 61
0.99189110 34.76590593 7.61688745 65 67 59
0.93249512 34.81774902 7.81412315 54 60 53
1.02249146 35.07421875 0.79039454 79 84 75
1.19113475 34.90268471 4.98781134 92 87 82
1.01699560 34.93271951 7.62313503 63 67 58
1.06343495 34.99855735 7.74714823 58 63 55
0.92941284 35.39343262 0.80312550 75 81 73
1.18322318 35.40107073 7.05446775 80 81 71
1.09377797 35.33722941 7.71487407 65 69 60
1.09920502 35.58224487 0.80794585 77 84 71
0.99090576 35.66817220 0.82139705 77 83 70
1.00568424 35.64353076 4.38326455 74 69 65
1.18698675 35.47548051 7.06497416 78 77 66
1.11927287 35.54353841 7.65583253 58 63 54
1.11824868 35.48448597 7.73514821 68 70 61
1.05960083 35.88450623 0.84050270 78 83 68
1.05555092 35.82661252 4.32833667 71 68 63
1.06588041 35.82979173 6.43407363 79 80 73
1.11821493 35.75008138 7.11318954 81 78 71
1.13018188 35.88000488 7.14730878 88 84 75
1.05461884 36.12762451 0.89013478 66 72 62
0.93811035 36.24871826 1.67381847 79 81 67
0.93901175 36.24624521 1.69695876 73 74 68
0.92671790 36.26862042 2.37818717 145 139 137
1.01111043 36.24239909 3.64691413 57 58 56
1.01797202 36.11586089 3.73444300 58 59 56
1.16417705 36.15455104 4.41363600 100 97 96
1.00294072 36.11210908 5.78169558 67 65 62
1.14173381 36.01554362 7.16746426 90 84 72
0.96186946 36.39939528 0.97483298 81 88 67
0.95884577 36.35474650 1.57937362 82 84 74
0.95997620 36.28721924 1.69947951 61 63 56
0.97431335 36.45169678 2.23963356 78 78 76
0.97092043 36.33135565 2.36117193 103 99 95
0.99935866 36.34789469 3.04698877 61 59 57
1.06324959 36.36403656 3.65163536 57 57 55
1.09986877 36.43914795 3.71264827 57 58 50
1.16629028 36.29785156 4.37446117 101 95 92
1.03627141 36.43660990 5.07896535 90 85 79
1.01049337 36.37816110 5.12636774 91 84 79
1.08935547 36.30581665 5.75832647 68 68 61
1.12615967 36.58209229 2.96432877 66 66 66
1.13678414 36.63021415 3.63696596 56 57 51
1.10290527 36.59240723 3.69390059 57 58 50
1.11086528 36.61753337 5.08348854 87 84 79
1.12789085 36.61066007 5.14532180 88 87 80
1.06443706 36.73680998 6.55748154 75 75 68
1.33003743 -33.21105957 3.26345420 32 41 32
1.23461914 -32.83111572 1.91040256 72 79 79
1.26837158 -32.80432129 1.97771513 98 101 97
1.32475789 -32.87150065 3.14482530 60 68 60
1.37366994 -32.56395467 0.30098605 98 98 82
1.37988281 -32.57310994 2.51177078 50 59 52
1.34373728 -32.52146912 2.59512972 41 47 40
1.44885254 -32.64538574 3.09529209 62 71 65
1.38014221 -32.63970947 3.12902904 64 74 61
1.30322266 -32.22937012 0.30215573 95 97 80
1.35240173 -32.43450928 2.57594335 38 44 34
1.34185791 -32.30120850 3.07805538 63 70 61
1.28808212 -32.25915527 3.93217582 36 41 33
1.23046875 -32.27111816 4.25082970 70 77 75
1.22280884 -32.26611328 4.26002026 71 78 76
1.36434937 -31.98864746 0.30501603 98 100 86
1.45547485 -32.01611328 2.59091401 25 24 21
1.29947335 -31.99069359 3.21252889 39 46 37
1.30462646 -31.91784668 4.14926052 54 62 60
1.31568909 -31.83239746 0.29981761 99 101 86
1.28114319 -31.74072266 3.25021452 26 37 24
1.23251343 -31.68774414 3.57122898 57 66 57
1.23370361 -31.59704590 3.72903419 60 70 60
1.32205200 -31.49112956 0.29081837 96 101 87
1.27033234 -31.45668030 1.94357422 60 60 56
1.25347666 -31.46022386 1.99377172 73 75 70
1.26120758 -31.48638916 3.26097411 32 38 31
1.28140259 -31.40368652 4.65857768 62 76 64
1.24307251 -31.54150391 5.05470896 34 42 33
1.41384888 -31.23107910 0.28698474 93 103 82
1.40902710 -31.09887695 4.95300055 59 73 61
1.29858398 -30.93798828 0.27936634 92 102 81
1.38715210 -30.94046224 2.59451336 50 55 48
1.40194702 -30.72930908 3.14422727 62 70 60
1.31221008 -30.73120117 3.59649891 59 68 59
1.33569336 -30.80480957 6.44879436 28 34 26
1.27479553 -30.49430339 0.27757509 93 99 80
1.29349459 -30.68926532 3.06818373 59 67 59
1.27029419 -30.69592285 3.17393699 35 44 28
1.30744019 -30.69208984 3.60794759 58 66 58
1.28533732 -30.54739583 3.79054476 37 45 37
1.32254028 -30.60119629 3.99267864 33 40 31
1.48403931 -30.44433594 5.06604147 75 86 71
1.27245331 -30.36422729 0.26861243 114 117 100
1.32192993 -30.21215820 3.65703225 49 57 54
1.38163103 -30.27333287 3.73154919 57 66 58
1.26056671 -30.33984375 4.97824013 40 44 36
1.20648193 -30.32995605 5.90118742 43 50 40
1.36891683 -30.19372559 6.10420926 68 84 63
1.28962708 -29.88372803 3.02029037 59 71 60
1.42797852 -30.00097656 3.64619899 62 62 62
1.45783997 -30.10339355 4.71591926 62 72 59
1.24190521 -29.91284180 5.06456518 57 66 58
1.27349854 -29.91357422 5.12098980 51 60 51
1.31558990 -29.99258423 5.93253672 51 58 48
1.38199557 -30.05394569 6.11286039 61 74 60
1.28619385 -30.01336670 6.30641341 30 36 28
1.36574402 -29.62431641 0.41604949 89 93 80
1.38079166 -29.62498093 0.69701455 55 59 52
1.36581511 -29.61160458 0.92950532 100 107 102
1.38544864 -29.62744722 1.34677910 46 47 43
1.36081210 -29.62654252 1.46176417 102 107 106
1.41675822 -29.59822591 1.95454530 42 43 40
1.38817978 -29.60546875 1.99972792 66 65 62
1.37313080 -29.60136414 2.50558859 112 118 113
1.40444801 -29.60349819 2.58316033 55 57 54
1.32116021 -29.76436361 3.02876078 65 76 67
1.45376587 -29.58636475 3.19086015 30 37 29
1.40755790 -29.60815430 3.54098909 82 90 89
1.40313721 -29.58728027 3.78022802 46 52 43
1.40026855 -29.59094238 4.03404808 118 119 112
1.24368286 -29.83837891 5.12642193 53 61 55
1.44927979 -29.61151123 5.92000508 50 57 46
1.42371114 -29.72617594 6.08974520 51 64 54
1.37118530 -29.74212646 6.28448677 52 59 50
1.38356890 -29.55332729 0.34426866 108 109 96
1.38008372 -29.56068929 0.66591071 48 51 44
1.40079753 -29.56665039 0.92117094 85 92 91
1.39315796 -29.54066162 1.34608197 40 44 36
1.39747530 -29.56746180 1.45780211 90 98 96
1.39040375 -29.55581665 1.95320067 54 56 50
1.39426136 -29.55243683 2.00342039 76 76 72
1.42068481 -29.56479492 2.50685558 86 92 91
1.42556069 -29.55493164 2.60472886 66 70 67
1.35912323 -29.40054321 3.02927866 90 96 93
1.35772315 -29.47936492 3.20114995 50 55 49
1.43560355 -29.55338832 3.55836311 97 98 99
1.43756797 -29.54682506 3.80870461 53 60 54
1.44014282 -29.54035645 4.03418570 61 69 65
1.47338867 -29.52990723 4.43858719 60 70 59
1.46002197 -29.50984701 5.90071456 41 50 41
1.46307373 -29.52719727 6.16269121 42 49 45
1.43252563 -29.55963135 6.30349112 31 38 34
1.46133423 -29.28125000 0.25357360 162 141 112
1.39100647 -29.27484131 3.03147733 70 78 74
1.25724792 -28.50534058 0.33552673 124 116 107
1.22293091 -28.69927979 6.19833899 40 45 32
1.33032905 -28.27473958 0.29998016 98 97 89
1.33901978 -28.02261353 0.28125453 94 95 88
1.34997559 -27.72525024 0.27808718 95 95 88
1.26169259 -27.72031948 4.70471586 59 71 58
1.29838053 -27.60091146 4.92820120 55 66 56
1.21325684 -27.29479980 0.21922351 114 113 106
1.29774373 -27.37489421 0.28682287 117 114 108
1.35031128 -27.54193115 4.75172210 54 63 53
1.22578430 -27.49310303 4.84781528 59 68 59
1.35948486 -27.42766113 5.17786694 50 62 53
1.27177670 -27.12277061 0.18102470 110 111 106
1.37218275 -27.14933697 0.28533060 110 109 104
1.24856567 -27.12219238 4.94686842 46 60 50
1.24751282 -27.11157227 5.24781275 54 63 52
1.36231162 -26.85296631 0.17492017 110 111 106
1.42259334 -26.86745981 0.26750858 94 92 86
1.47808838 -26.75915527 5.55916214 64 72 58
1.36334947 -26.56901281 0.13794873 135 141 139
1.46809387 -26.69787598 0.25925094 62 61 50
1.42428589 -26.65301514 5.47970319 35 44 30
1.48281860 -26.68688965 5.72666550 64 77 67
1.35561301 -26.34383878 0.12907651 126 130 127
1.20791626 -26.34741211 5.91086197 49 52 45
1.35224406 -26.33846029 6.49518633 42 45 38
1.42860921 -26.37345378 6.55332263 41 45 37
1.36381022 -26.00162760 0.14392966 140 137 132
1.38951280 -25.91855197 4.11325132 30 38 31
1.36961670 -25.73630371 0.13450170 127 125 119
1.33003998 -25.74444580 5.00428581 53 63 53
1.42071533 -25.58081055 5.23295593 39 49 39
1.33970860 -25.39869908 0.14478698 132 131 126
1.30325012 -25.41719971 4.77390056 44 54 45
1.28507690 -25.44755859 4.90110992 52 62 53
1.44633993 -25.40088569 5.28175200 38 47 38
1.45627340 -25.40478516 5.48503009 54 65 54
1.25135803 -25.33410645 6.23576832 34 41 32
1.24029541 -25.30596924 6.28334284 34 42 34
1.37047729 -25.12375488 0.14314733 143 144 144
1.25112680 -25.24382136 3.88539866 47 51 45
1.30014648 -25.19909668 4.08840003 52 60 53
1.46702576 -25.07727051 4.30262208 30 34 28
1.44401855 -25.16779785 5.29450636 30 36 29
1.44073486 -25.07519531 5.66874051 26 33 25
1.43367004 -25.06471252 5.75007421 32 39 30
1.26434326 -25.14129639 6.11766028 39 39 36
1.21228027 -25.23321533 6.35212564 41 46 37
1.35963949 -24.88166413 0.15868605 140 143 143
1.43751526 -24.75317383 4.35805964 35 38 32
1.48880005 -24.99694824 5.31139374 36 43 37
1.30992325 -24.86898671 5.86743367 44 50 40
1.38076928 -24.84221540 6.10438876 38 44 37
1.35362752 -24.58927409 0.15016575 130 132 129
1.31323242 -24.51054687 4.17975407 39 46 37
1.34126420 -24.52980735 4.42625614 55 68 57
1.28084623 -24.48010254 4.64478489 48 58 49
1.35266418 -24.46241455 4.90560989 57 70 68
1.38858541 -24.65355428 5.87008826 41 46 36
1.40181885 -24.57022705 6.46271014 52 59 46
1.37066214 -24.51393345 6.58848177 53 58 49
1.34114380 -24.26397298 0.16629614 151 155 154
1.24505920 -24.28823242 3.92657876 47 53 46
1.29105835 -24.26196289 4.03512797 43 53 43
1.30692306 -24.28522327 4.42183339 48 57 48
1.37120264 -24.26643233 4.65588738 44 55 45
1.35003015 -24.27798924 4.94981497 44 54 46
1.24035645 -24.32482910 5.13186693 33 40 31
1.29817963 -24.27984619 6.63273752 49 53 45
1.34554221 -23.95483398 0.15578932 123 125 122
1.21656799 -24.02716064 3.93945241 27 33 26
1.25719779 -23.96341378 4.05290249 60 68 60
1.43236160 -24.07939657 4.42948178 46 54 46
1.39208458 -24.09588834 4.66807196 40 49 41
1.24845378 -24.07492405 4.92004840 74 85 83
1.24273682 -24.12744141 5.12780094 60 74 64
1.27694702 -23.87902832 6.46868277 64 68 55
1.30752563 -23.93017578 6.68545246 42 50 44
1.35608782 -23.70251465 0.16694169 143 132 127
1.29965210 -23.83288574 6.48362160 62 67 57
1.40288696 -23.81838379 6.62118483 46 52 47
1.35882874 -23.45164795 0.17362931 134 106 100
1.34451675 -23.15946960 0.17434577 142 104 93
1.32641961 -22.90393066 0.16067269 133 86 75
1.34445370 -22.56713867 0.19456030 153 107 89
1.34088135 -22.23145470 0.19883744 160 109 88
1.37220086 -21.97505697 0.22312369 160 139 128
1.33356120 -21.74628906 0.21488112 116 111 104
1.26185608 -21.63534546 6.52168679 42 48 43
1.29392867 -21.61463512 6.59037456 40 48 45
1.36456064 -21.43768780 0.20589118 117 107 99
1.20581055 -21.49914551 6.63483810 42 47 46
1.36766561 -21.13715278 0.19832675 124 117 110
1.39045363 -20.83534593 0.18727503 130 118 110
1.30120087 -20.87472534 0.24674570 163 165 165
1.36132149 -20.54730490 0.17810439 103 85 73
1.30484009 -20.52705892 0.24897712 66 50 43
1.33850479 -20.25382996 0.18662409 113 108 100
1.37005615 -20.24603271 0.25221060 133 85 56
1.33902696 -19.96480785 0.13373985 120 116 105
1.28643799 -19.94360352 0.25701441 190 162 148
1.33733335 -19.76182490 0.12129010 119 115 106
1.35741340 -19.69785563 0.27214007 177 180 181
1.35022250 -19.42651367 0.18203444 113 113 104
1.35589027 -19.40396881 0.26298912 188 174 173
1.35380046 -19.07344564 0.10128949 116 115 105
1.32871246 -19.15797424 0.26357546 184 166 164
1.35304399 -18.75677963 0.07505385 101 95 86
1.38460159 -18.81736755 0.26039460 189 163 158
1.31137085 -18.55513509 0.18751937 99 97 92
1.36531677 -18.53603516 0.26304474 183 165 158
1.35083008 -18.25927734 0.24209011 111 110 102
1.34088135 -18.24416185 0.27952659 203 164 150
1.35500990 -18.01911272 0.28038408 188 162 152
1.34045846 -17.71233259 0.27802375 199 154 139
1.35862491 -17.43137721 0.27950262 176 156 148
1.30757141 -17.02392578 0.23098011 63 62 57
1.35155523 -17.14319429 0.28587765 170 138 123
1.26351318 -17.06135254 2.49120855 43 47 42
1.29627991 -16.93792725 0.23930828 64 62 56
1.33284760 -16.81077140 0.27507276 99 100 96
1.23803711 -16.77465820 0.81434202 94 82 78
1.39190674 -16.69421387 0.81760126 96 94 76
1.27908325 -16.75305176 1.37158227 96 89 95
1.24514771 -16.71545410 1.92915976 42 42 38
1.34236993 -16.86419000 2.49248301 33 36 34
1.27402344 -16.74931641 3.04523511 81 84 79
1.38703189 -16.59357486 0.28068224 101 103 98
1.32288034 -16.56365095 0.82823693 90 84 73
1.39923096 -16.61730957 1.37615716 94 92 89
1.33085937 -16.56518555 1.93161373 49 50 42
1.33854248 -16.56465820 2.49380578 32 39 38
1.42548625 -16.64685059 3.03994616 100 100 96
1.35173035 -16.25561015 0.30001177 175 156 148
1.30409749 -16.27640788 0.84896266 72 69 68
1.33932495 -16.27159119 1.39478740 93 87 82
1.34551725 -16.25934393 1.93985793 79 79 75
1.37889862 -16.27539062 2.49079955 38 42 41
1.34093730 -16.18924967 3.03162857 94 98 97
1.36404629 -15.97306034 0.30840065 179 147 135
1.35694469 -15.98990146 0.86904494 65 66 64
1.32373483 -15.93233817 1.41115551 85 80 73
1.34769694 -15.97048950 1.94652943 80 78 77
1.33303223 -15.96430664 2.48990359 43 50 45
1.34441757 -15.96331787 3.02775055 99 104 103
1.35038989 -15.69804983 0.31551393 168 139 126
1.35782565 -15.71194223 0.88834374 65 63 59
1.36630503 -15.70797729 1.42116553 31 36 28
1.35749563 -15.69125366 1.95302067 80 78 80
1.40370178 -15.76104736 2.49096251 36 42 38
1.35175393 -15.68388228 3.02204600 96 101 100
1.35332964 -15.39367215 0.33210132 139 117 107
1.34200372 -15.38269043 0.91319292 64 63 56
1.33581340 -15.39980469 1.43785108 48 43 34
1.36523819 -15.46803284 1.95998974 82 80 82
1.32296753 -15.33699544 1.96447855 78 79 80
1.32772272 -15.37686435 2.49686783 66 67 64
1.35595703 -15.39522298 3.01549355 89 91 91
1.34467299 -15.14440375 0.33541368 154 135 127
1.33812205 -15.07615153 0.93578242 51 52 47
1.36004639 -15.12945557 1.45143498 56 48 45
1.35356727 -15.12480281 1.96974624 74 78 79
1.34401245 -15.11364746 2.49592144 45 51 49
1.33254751 -15.10818481 3.00815636 56 60 66
1.35383197 -14.81304783 0.32682411 180 156 146
1.37376785 -14.83737946 0.95203680 52 54 48
1.34807880 -14.84190956 1.46472730 59 49 47
1.34192792 -14.84136604 1.97597573 76 81 81
1.33955165 -14.83310372 2.49538847 30 40 37
1.34896415 -14.83324323 3.00101600 43 47 55
1.34216160 -14.52208282 0.35183299 154 145 139
1.37261200 -14.52079264 0.97395088 61 63 55
1.36808777 -14.55069987 1.47658668 52 47 44
1.31845093 -14.49839565 1.98607444 65 69 67
1.29499817 -14.45874023 2.49529791 30 42 36
1.30318604 -14.49804199 2.99681376 64 67 63
1.35078964 -14.26669464 0.38591622 139 116 107
1.38466644 -14.19730922 0.99968077 77 77 70
1.31377258 -14.20509033 1.49640495 123 106 95
1.35914980 -14.26591544 1.99064223 70 73 70
1.32676915 -14.24100167 2.49271471 37 40 41
1.37471715 -14.32848823 2.99233820 70 74 69
1.35273406 -13.96572307 0.35051239 169 155 148
1.42923737 -14.07341003 1.00780842 72 72 65
1.42793335 -14.07349121 1.50214985 120 112 105
1.41988754 -14.08192444 1.99532996 94 94 90
1.36122301 -13.97459581 2.48916497 29 33 34
1.33953074 -13.70264167 0.35784648 152 140 134
1.47549438 -13.70202637 0.70796043 29 29 32
1.41857910 -13.61279297 0.89827323 64 64 60
1.46408081 -13.81829834 2.48905897 38 41 44
1.35114814 -13.40739204 0.36249218 166 165 163
1.33854980 -13.34216309 0.72944905 123 85 71
1.34254238 -13.38636998 0.94706458 70 73 69
1.37827555 -13.30643717 1.11156221 240 240 238
1.46102905 -13.11169434 0.24122450 116 82 72
1.34095459 -13.11801487 0.36737803 170 173 173
1.38740422 -13.11622033 0.66400592 49 50 48
1.36431650 -13.09397536 0.92551306 166 167 162
1.42613983 -13.06896973 1.13539180 205 206 200
1.47060140 -12.88016764 0.22887237 86 58 40
1.34876455 -12.82270304 0.38018423 172 173 171
1.41766697 -12.81964111 0.65677126 122 121 115
1.42605743 -12.82508545 0.95209952 196 196 188
1.45726984 -12.84357244 1.16146572 207 207 201
1.46749878 -12.68420410 0.22482839 90 57 50
1.35385494 -12.53355121 0.38639754 167 168 165
1.45589193 -12.60111491 0.65327670 95 95 92
1.46318054 -12.62088013 0.94889731 203 202 196
1.49057007 -12.66503906 1.18074942 208 209 202
1.47873633 -12.20157950 0.21949876 87 70 59
1.33562206 -12.24393970 0.38878779 167 167 164
1.35378343 -11.96044480 0.39756405 171 163 157
1.36442980 -11.69515629 0.39550064 174 163 158
1.34091014 -11.40199034 0.40016315 176 165 159
1.35612466 -11.09267404 0.40228132 183 151 140
1.37386088 -10.83480731 0.40826286 178 177 174
1.30938372 -10.52269200 0.41207515 153 151 148
1.33297315 -10.24610295 0.41786726 150 146 143
1.37425844 -9.99216425 0.42092528 153 146 141
1.30322003 -9.66109343 0.43360173 154 147 141
1.33430855 -9.39404920 0.44054484 150 140 134
1.36396581 -9.13781738 0.45888696 141 116 103
1.26235484 -9.01254236 0.71226961 176 130 110
1.24192025 -9.03765400 0.95238787 187 165 156
1.26673526 -9.06585403 1.11723371 214 145 122
1.33566309 -8.83572607 0.43753819 137 124 115
1.26358884 -8.92825516 0.64745118 152 107 88
1.26238475 -8.94320140 0.87053672 121 106 94
1.34383221 -8.51028793 0.39830372 137 119 110
1.34525618 -8.32126240 0.32210255 109 105 99
1.34147731 -7.96045183 0.44397247 123 117 112
1.36161833 -7.70234536 0.44754537 119 111 106
1.34840879 -7.39327448 0.43703191 116 112 105
1.35147426 -7.09923520 0.42188221 96 93 85
1.33960781 -6.80628491 0.45110395 101 98 91
1.36629883 -6.55290527 0.44709314 95 88 79
1.36498861 -6.22104336 0.44384357 101 90 81
1.32250977 -6.10546875 0.60672468 131 132 125
1.36460358 -5.95650266 0.45441459 97 91 83
1.36068328 -5.93554511 0.69900683 112 109 102
1.38921667 -5.62353666 0.36795987 86 82 74
1.33489990 -5.75610352 0.66233987 99 95 81
1.41780133 -5.58144580 0.98113731 142 77 56
1.36974116 -5.64693515 1.27825045 113 80 64
1.33449342 -5.61309126 1.51313660 150 124 100
1.33350804 -5.35163782 0.46960535 93 83 75
1.35565227 -5.31439293 0.67412114 93 88 75
1.32208136 -5.45431956 0.99653356 107 80 62
1.35377689 -5.46804860 1.23952502 135 113 92
1.30645534 -5.49969482 1.44319382 125 109 92
1.28230334 -5.04049719 0.46069435 95 68 56
1.27457911 -5.12073449 0.67890580 130 84 66
1.26613193 -5.08683724 0.97431899 130 107 97
1.30981528 -5.06799866 1.15742535 161 128 113
1.33886590 -4.80597980 0.49234402 96 86 77
1.29872006 -4.89075055 0.62964819 105 66 50
1.29158414 -4.91093789 0.87357197 101 83 74
1.35078182 -4.52129435 0.49286905 102 101 94
1.32266479 -4.50256836 0.53873845 122 121 114
1.35664631 -4.23824938 0.48069360 99 99 92
1.31927363 -4.22931163 0.53734141 120 119 113
1.36110944 -3.95908482 0.46459803 100 98 92
1.33547102 -3.93215942 0.53849775 123 123 116
1.34619095 -3.72532341 0.40721322 98 95 88
1.33760864 -3.66731283 0.54009280 122 121 115
1.35839697 -3.37279391 0.46978732 93 92 85
1.34867147 -3.38034993 0.54252251 121 120 114
1.34836285 -3.08961135 0.47090020 94 93 85
1.35405866 -3.09383976 0.54613184 121 120 114
1.34821177 -2.80020067 0.46291386 91 90 83
1.35805502 -2.80108411 0.54916138 122 121 115
1.36872701 -2.48441929 0.45070913 94 92 85
1.35346405 -2.51808532 0.55546244 143 141 135
1.34380803 -2.34031968 0.42472897 98 96 88
1.35622373 -2.22960541 0.55885927 159 158 151
1.35105802 -1.93438043 0.47448937 113 111 103
1.35415359 -1.93946281 0.56372533 153 150 144
1.34830043 -1.65004476 0.47657210 114 113 103
1.34518253 -1.65966258 0.56946068 135 132 125
1.36667653 -1.34362473 0.47193813 98 96 87
1.35347656 -1.36630859 0.57325077 133 129 123
1.34513480 -1.18832528 0.45304297 100 97 89
