ply
format ascii 1.0
comment Generated by nuScenes dev-kit
element vertex 1047
property float x
property float y
property float z
property uchar red
property uchar green
property uchar blue
end_header
-3.64039103 60.05118815 6.17310238 121 120 102
-3.52453918 59.98735352 6.86378713 145 143 124
-3.73373413 60.48754883 5.58450508 122 120 108
-3.66377767 60.34765625 5.94973278 134 132 114
-3.75560506 60.33782959 6.20595066 131 128 110
-3.58770752 60.34766735 6.67421046 136 132 117
-3.71456909 60.71142578 5.52950954 128 125 118
-3.62479401 60.78524780 5.76555240 154 153 132
-3.69949341 60.84301758 6.62179289 138 135 116
-3.64971924 61.39831543 5.45792786 113 110 98
-3.63471014 61.32506214 6.66247996 162 154 142
-3.78024292 61.98852539 5.78551149 160 159 138
-3.40206909 61.62512207 6.56982613 142 125 117
-3.75485229 62.17596436 5.79405522 150 150 128
-3.79620361 63.28344727 5.48847294 122 118 107
-3.78649902 63.11364746 7.71541023 146 146 120
-3.81832886 63.57507324 5.39377856 136 130 120
-3.55566025 63.52917480 5.79083997 137 131 119
-3.53498230 64.03208008 5.39173355 134 123 116
-3.72944132 64.14347331 6.11653026 165 158 141
-3.75947571 64.37023926 6.12990451 162 156 140
-3.00143433 -61.37634277 1.94300842 100 104 107
-3.00894165 -61.37768555 1.97645891 107 107 109
-3.03591919 -58.11254883 1.94380975 88 89 90
-3.04726109 -58.13743453 2.03173464 95 98 98
-3.03032109 -58.05282218 2.59266455 103 105 101
-3.03745548 -58.05069793 3.16175623 110 107 99
-3.02676177 -58.05455258 3.72014563 125 120 112
-3.02498808 -58.04780506 4.00325518 159 152 143
-3.04410779 -58.04837036 4.32486389 142 136 126
-3.13457836 -57.89675973 1.44638554 68 70 68
-3.19867428 -57.87048921 1.56104992 66 67 67
-3.25259473 -57.94029004 2.04513006 101 105 108
-3.25917017 -57.94906055 2.60902756 89 92 92
-3.26229295 -57.94989108 3.17286170 90 87 80
-3.24597403 -57.95479955 3.72303691 105 102 94
-3.25230968 -57.94179409 3.94303381 156 150 143
-3.26045041 -57.94123158 4.34153134 138 133 124
-3.13608297 -56.30478923 1.12437600 66 67 55
-3.02606201 -55.77416992 1.04355061 64 66 53
-3.14235545 -55.86269504 1.09625616 54 56 47
-3.07593994 -55.50876465 1.03871179 64 66 54
-3.19430123 -55.51250622 1.06665433 58 62 51
-3.14605713 -55.11615545 1.03779495 62 64 53
-3.18998866 -55.14464938 1.08131822 55 59 49
-3.13123576 -54.48972575 1.03352026 67 69 60
-3.14469528 -54.60702515 1.06857990 67 70 61
-3.28175354 -54.33697510 1.04325855 64 66 55
-3.14181386 -54.05478834 1.09376519 67 71 60
-3.05699158 -53.54089355 1.07841516 56 61 48
-3.31785583 -53.24487305 1.09195954 42 46 40
-3.26620483 -53.02632650 4.04878537 70 73 65
-3.29400635 -53.00545247 4.33219671 117 115 96
-2.98692322 -52.95751953 1.08339739 63 65 61
-3.27142822 -52.75394531 3.48895421 79 77 71
-3.23652115 -52.78827515 4.08760660 58 60 56
-3.12371384 -52.75470059 4.40555008 110 109 98
-3.08434069 -52.62535796 4.76907151 153 151 139
-3.23717616 -52.24842717 3.61302572 61 61 57
-3.15278625 -52.33925182 3.91682963 97 95 88
-3.21371460 -52.40107073 4.53671042 70 73 69
-3.25382174 -52.39203116 4.84343899 92 92 86
-3.34738159 -52.18176270 5.19391108 57 57 57
-3.16024835 -52.01317705 3.55921779 52 53 50
-3.15898496 -51.92704555 4.07960170 44 45 43
-3.07564372 -51.80514811 4.41851678 64 65 60
-3.26379830 -51.82349563 4.98257465 84 87 83
-3.31486342 -51.82119412 5.18184111 96 98 98
-3.36826579 -51.17008464 3.35889689 52 47 44
-3.16658685 -51.33136925 4.09077549 44 46 44
-3.11652668 -51.42864631 4.55815594 59 60 56
-3.24003347 -51.46256714 4.85358820 56 58 53
-2.95700073 -50.74499512 0.81961209 60 63 64
-3.34530640 -51.15661621 3.72814751 31 35 34
-3.24547904 -51.11863491 4.18000759 41 43 41
-3.34745519 -50.87950942 4.42363192 41 43 42
-3.35359779 -50.76098633 4.77815144 50 53 48
-3.15271008 -50.57074941 0.95232803 77 76 71
-3.36481730 -50.66377767 4.85295645 71 73 67
-3.09007504 -50.08314594 0.89056547 81 82 78
-3.20411174 -49.49003092 0.87695749 64 66 64
-3.01589966 -49.41019694 1.23148624 57 52 49
-2.97235229 -49.58803711 1.81772301 88 81 79
-2.94238281 -49.53967285 2.24042058 107 96 90
-2.94910049 -49.56486511 2.64902143 82 83 81
-2.95496922 -49.54439290 3.06972807 92 91 88
-2.96139842 -49.53090063 3.44915534 79 79 79
-2.94565837 -49.59284668 3.98064726 69 70 68
-2.94832732 -49.53311960 4.28543550 83 86 85
-3.11693464 -49.06912086 0.86208424 60 62 61
-2.96913656 -49.18180339 1.22854948 46 46 44
-2.96145630 -49.28723145 1.65584266 109 49 39
-2.93127441 -49.29583740 2.65886915 81 76 76
-2.94041443 -49.28009033 3.04416776 100 98 94
-2.93469238 -49.27777100 3.43077004 102 102 94
-3.16933546 -48.63046444 0.87271689 50 51 49
-2.99108505 -48.67766825 1.46863755 52 46 42
-2.99371847 -48.56795247 1.60654545 66 61 52
-3.14856974 -48.16721146 0.84292544 70 71 70
-3.24871826 -48.02844238 1.35627302 30 34 37
-2.98226929 -47.99636230 1.54580424 31 33 36
-3.10769907 -47.68543440 0.82349584 106 106 102
-3.16397535 -47.72821224 1.39432822 34 38 38
-3.14621265 -47.75211038 1.57272546 27 31 32
-3.17822571 -47.32049838 0.82058481 124 122 118
-3.05548907 -47.16227508 1.30555677 45 48 47
-3.10579335 -47.23764870 1.58935863 36 38 39
-2.97158378 -47.07200405 2.07598908 108 114 116
-2.98021444 -47.07128906 2.72244525 111 118 119
-2.97629801 -47.06453451 3.37170251 98 103 105
-3.16029149 -46.87795603 0.81903551 130 130 127
-3.04509515 -47.02175700 1.25500744 51 52 51
-3.14742318 -46.81436119 1.86585053 76 78 79
-3.14867536 -46.81485296 2.19323160 107 110 110
-3.14885105 -46.81178945 2.65700572 117 120 121
-3.15160139 -46.79360962 3.09150199 126 128 129
-3.15777034 -46.78790507 3.55173923 95 101 101
-3.14915059 -46.77620618 4.02136718 114 117 117
-3.20742943 -46.71001907 4.25236986 96 98 99
-3.14088213 -46.34386688 0.78491515 144 145 143
-3.11155535 -45.84074972 0.79565806 136 138 135
-3.13779313 -45.42327118 0.78675207 143 142 140
-3.15651581 -45.01621345 0.76767784 139 136 132
-3.14386085 -44.57217151 0.75046777 134 130 126
-3.16125997 -44.08836986 0.74948042 138 137 133
-3.15983572 -43.62451172 0.74130194 136 136 132
-3.15127440 -43.16578655 0.71688611 146 145 141
-3.14174709 -42.70219908 0.70692218 149 148 144
-3.14703110 -42.26448538 0.70170820 145 145 141
-3.15043897 -41.80177307 0.67699254 157 156 152
-3.12780762 -41.11926270 0.58601558 107 116 115
-3.16045983 -41.35010109 0.66963449 155 155 152
-3.11571786 -40.83082090 0.65528239 150 150 147
-3.17079220 -40.45576291 0.64884683 139 138 135
-3.18440102 -40.09749294 0.64554275 110 109 106
-3.10878006 -38.94707979 0.80105569 116 115 112
-2.96026611 -38.42492676 0.57008970 116 117 112
-3.13141606 -38.60989400 0.80219566 109 109 107
-3.08387510 -38.05210302 0.57657200 114 113 111
-3.15302257 -38.15059328 0.70351880 63 65 63
-3.12774535 -37.67257473 0.57336136 106 107 106
-3.19558653 -37.71358307 0.61088824 93 94 91
-3.14767303 -37.23345280 0.55878100 93 96 96
-3.17542312 -37.26600826 0.60771203 88 89 87
-3.15786576 -36.78318326 0.54580381 89 92 93
-3.14323214 -36.83067345 0.60426893 83 83 83
-3.14921849 -36.32904759 0.53088306 83 86 86
-3.15265158 -36.40696650 0.59603077 83 83 81
-3.14609722 -35.87539547 0.52338840 79 82 82
-2.96447754 -35.70947266 0.60798603 76 76 74
-3.13757254 -35.40192686 0.50730910 70 74 74
-3.14105470 -34.96996153 0.49337896 70 73 72
-3.14528428 -34.45715649 0.44794977 78 77 76
-3.15454628 -34.04485095 0.43648332 93 94 93
-3.15947989 -33.58584713 0.42398432 89 91 90
-3.16020775 -33.12290979 0.41541685 77 80 80
-3.15548411 -32.66905602 0.40216558 71 74 75
-3.14549481 -32.22421152 0.37435080 89 92 90
-2.99562073 -32.04260254 0.84280783 93 97 100
-2.96652222 -32.01525879 1.23409367 104 108 107
-3.14419572 -31.76451305 0.36430927 88 90 89
-3.13966416 -31.74476947 0.83497550 85 89 92
-3.11717085 -31.74165483 1.31000271 122 125 126
-3.18546041 -31.75561523 1.71529289 86 78 83
-3.13764940 -31.29946431 0.33785403 88 90 90
-3.14460449 -31.30743931 0.83811886 92 97 99
-3.16000089 -31.31781006 1.27586613 112 117 118
-3.14756892 -31.29171049 1.74063400 66 73 76
-3.14446329 -30.83561452 0.30074316 84 86 85
-3.14172203 -30.84373073 0.85304035 103 108 110
-3.16508623 -30.85561856 1.26667843 117 123 124
-3.16009052 -30.86363807 1.74601650 65 73 76
-3.23244222 -30.68229167 2.01235668 48 55 56
-3.15168783 -30.38776396 0.28206919 80 84 83
-3.14707060 -30.36606332 0.84120564 89 94 95
-3.15543722 -30.33465576 1.28562563 100 105 106
-3.21865845 -30.40527344 1.68862396 52 59 58
-3.10232666 -30.32519043 2.00405005 34 41 41
-3.15032078 -29.94689191 0.27081042 87 90 88
-3.16169508 -29.99479722 0.83620485 59 63 62
-3.15838266 -29.95323122 1.29563940 77 81 80
-3.12006836 -30.04545898 1.64335418 40 44 42
-3.24687312 -30.03419847 1.99454182 41 48 45
-3.15357996 -29.48216467 0.24595047 89 91 88
-3.13521944 -29.00341629 0.25531403 78 80 77
-3.13961401 -28.55212956 0.36515215 71 74 67
-3.14468777 -28.09005851 0.40963285 64 68 58
-3.11007690 -27.90587158 2.62575662 182 178 173
-3.14614827 -27.65545230 0.46371970 74 77 68
-3.07946523 -27.49689738 0.61055691 66 69 59
-2.98409383 -27.59520542 2.60920038 89 92 84
-3.10693577 -27.55144392 2.90752445 137 133 124
-3.11525879 -27.52391968 3.69550034 122 125 119
-3.33609009 -27.52069092 3.80874074 136 140 139
-3.06051636 -27.50769043 4.53858423 98 92 91
-2.99142456 -27.46691895 4.72241521 70 72 66
-3.14854498 -27.19690686 0.51256053 87 88 80
-3.13679360 -27.19594243 0.62648774 55 58 49
-2.95848999 -27.24890137 2.39068675 63 64 53
-2.97808193 -27.30356413 2.58894396 85 89 81
-3.10544027 -27.05022380 3.26004864 81 82 77
-3.16926033 -27.12592616 3.55073190 100 102 95
-3.08673832 -27.15838834 3.94936898 101 101 98
-3.14917344 -27.11138447 4.42612267 101 101 98
-3.03547220 -27.12105785 4.88572480 60 62 57
-3.14092030 -26.73090830 0.51987315 103 100 92
-3.14806112 -26.74754955 0.63700008 59 61 53
-3.02119114 -26.87558381 3.25451994 67 70 63
-3.17657562 -26.80661512 3.59998354 68 71 67
-3.21363969 -26.77620073 3.97886502 110 110 105
-3.11109924 -26.83023349 4.41116940 77 78 74
-3.03077393 -26.80733643 5.06614849 58 64 57
-3.02083043 -26.69566127 5.19002104 38 43 38
-2.94689941 -26.81213379 6.14862061 42 45 36
-3.14361532 -26.27484898 0.53454054 108 103 93
-3.11632354 -26.27706173 0.64519991 61 62 53
-2.92178345 -26.44750977 3.65453911 93 96 87
-3.14522095 -26.27248535 4.19219294 69 74 72
-3.11438110 -26.28377441 4.41954222 76 79 75
-2.97918701 -26.27124023 4.79018557 68 69 68
-3.05206299 -26.16314697 6.23728204 45 49 49
-3.14988470 -25.82139481 0.53315003 109 103 93
-3.11559232 -25.82937876 0.62955756 66 66 57
-3.00267537 -25.96493734 4.46662493 40 41 35
-2.97679138 -25.93164062 4.71614861 70 70 64
-3.15918986 -26.00109863 5.99640576 31 35 29
-3.10592651 -25.93560791 6.28337836 40 43 41
-3.15578062 -25.37410200 0.53740862 110 104 95
-3.20669192 -25.32397170 0.64893194 64 64 54
-3.04891205 -25.24487305 5.92524254 37 38 32
-3.15006782 -24.91374239 0.54312725 106 100 92
-3.17581566 -24.92654354 0.64989704 64 65 58
-3.16212572 -24.46423882 0.55631116 109 103 94
-3.05469007 -24.41016592 0.62603240 98 96 89
-2.95969606 -24.33974227 1.32498068 159 160 164
-2.95860215 -24.34790905 1.64929033 163 161 163
-3.01051113 -24.34671456 4.04695330 147 147 148
-2.94566854 -24.24536133 4.44008970 166 167 161
-3.18150838 -24.48006185 4.96500667 51 54 50
-2.99076080 -24.37541199 5.47924918 58 58 51
-3.20639038 -24.54895020 5.72402477 52 52 40
-3.14813172 -23.99011342 0.52473006 113 107 97
-3.01770277 -24.16583854 0.60383343 113 110 101
-2.99078230 -24.20368541 1.47059653 90 93 86
-2.97320557 -24.20705997 1.52789930 178 174 177
-2.94327545 -24.20169067 4.08503675 82 82 77
-3.17877197 -23.94897461 5.10617411 30 34 30
-3.16297105 -24.03799259 5.26622340 42 44 40
-3.00112915 -23.92639160 5.71698403 44 46 40
-3.15951711 -23.55431331 0.49376472 110 105 95
-3.01342684 -23.47838637 3.72610009 80 82 76
-3.02958660 -23.40623041 3.85916905 61 64 58
-3.11869049 -23.66381836 5.21297467 48 51 49
-3.14315815 -23.06532816 0.46341120 117 114 107
-3.13113403 -23.20196533 0.61861864 34 38 32
-2.96110840 -23.23718262 3.73813124 87 88 83
-2.98449489 -23.17475237 3.96343074 59 61 55
-3.12906901 -22.97542318 4.51622687 93 89 82
-3.13789368 -23.07727051 4.98095751 61 60 54
-3.18749723 -23.20112749 5.24012466 48 54 46
-3.03110758 -23.03106689 6.14768712 53 54 50
-3.18565741 -22.64986344 0.46661218 125 126 127
-3.30535889 -22.61836751 4.19979366 28 32 25
-3.05531006 -22.72910156 4.39021349 71 69 61
-2.99738312 -22.63592529 5.00108945 46 46 40
-3.13012695 -22.81213379 5.42436028 81 82 74
-3.13264114 -22.15691073 0.48337185 135 135 138
-3.11842305 -22.06419579 0.59985290 44 47 41
-2.92596436 -22.37329102 4.19314384 164 156 145
-3.32177734 -22.07449618 4.41843128 43 43 35
-3.19027448 -21.73605390 0.49195300 134 135 137
-3.09905893 -21.69697627 0.60198186 48 53 47
-3.17352295 -21.93505859 4.23592472 29 31 20
-3.27992757 -21.90970866 4.58742317 43 43 34
-3.24150594 -21.66721598 4.93275833 55 54 50
-3.15102726 -21.24654247 0.49326139 131 132 134
-3.09695014 -21.32311591 0.59865668 50 56 51
-3.22732544 -21.46252441 4.69391775 38 37 32
-3.21575928 -21.44250488 4.77392590 36 38 34
-3.29428101 -21.08178711 5.76780748 60 61 53
-3.15188386 -20.81236141 0.48668002 136 137 138
-3.10981750 -20.83752441 0.59980381 54 59 56
-3.35534668 -20.87109375 4.96799707 30 32 21
-3.15974361 -20.34022413 0.49040358 138 138 139
-3.04945374 -20.43395996 0.59664601 52 56 55
-3.17604928 -19.88432079 0.49397801 151 150 149
-3.09494019 -19.85177273 4.42886735 52 53 46
-3.22272491 -19.71075439 5.55267549 48 52 47
-3.07465363 -19.79043579 5.84913749 31 35 28
-3.06857300 -19.70930990 6.21941217 32 33 29
-3.22270488 -19.45405420 0.50232392 157 155 152
-3.00537872 -19.59735107 4.19203579 70 72 64
-3.00802335 -19.55532559 4.42451243 53 56 47
-3.14493476 -19.30561433 4.91083156 33 38 32
-3.08435495 -19.41702706 5.50567545 34 38 31
-3.05124919 -19.55975342 5.89136116 40 42 35
-3.04424613 -19.58860561 6.15348107 28 31 25
-3.16613770 -19.21777344 6.77876043 37 42 35
-3.11721802 -19.26269531 7.00348997 26 31 24
-3.15091187 -18.99202890 0.50887257 158 151 145
-3.12290955 -18.85253906 0.59310952 51 56 52
-3.36651611 -18.75427246 1.37883496 94 95 97
-3.18039307 -18.80738281 1.64973477 81 81 81
-3.16409709 -18.96811035 4.06640530 90 89 78
-2.96936417 -18.89875031 4.36561811 56 56 48
-3.21075856 -19.04789040 4.90812109 32 36 30
-3.19399261 -19.16339111 5.51184082 31 35 29
-3.03088379 -18.98443604 5.80191755 35 34 26
-3.33831787 -18.86169434 6.34813118 37 38 30
-3.12931941 -19.13236178 6.76837683 26 30 24
-3.26875000 -19.08908691 7.05034285 24 27 21
-3.10474148 -18.50169551 0.52109686 150 139 129
-3.20993374 -18.46712078 0.81937698 85 84 80
-3.15850155 -18.52795153 1.26364246 74 76 78
-3.14521436 -18.59111621 1.74851492 110 112 120
-3.11908801 -18.53862052 2.12710811 82 82 80
-3.23571708 -18.61805309 4.01326337 83 85 72
-2.93432617 -18.68957520 4.31864357 70 68 53
-3.29080200 -18.29968262 5.53278399 22 24 21
-3.18855834 -18.08069547 0.55486988 104 101 91
-3.09774514 -17.99897597 0.63142027 83 84 74
-3.15112305 -18.18017578 1.36132455 83 84 86
-3.24690247 -18.22113037 1.64665729 128 130 141
-3.16766357 -17.93957520 4.29599571 82 84 71
-3.06061554 -18.14562988 5.24262118 39 46 37
-3.10401917 -18.08520508 5.76508760 25 30 20
-3.23329419 -17.62895336 0.56960801 113 112 100
-3.11025572 -17.60357237 0.62862554 99 98 85
-3.32456462 -17.46590169 3.29260079 144 145 148
-3.16211128 -17.47795105 4.10492466 62 68 64
-3.18929443 -17.77584229 4.39735451 52 56 49
-3.36614990 -17.38134766 5.13395882 31 32 27
-2.95716858 -17.49609375 5.44643116 34 43 28
-3.22875167 -17.19960406 0.57307453 120 119 105
-3.14818834 -17.15574807 0.62153134 106 106 93
-3.34580994 -17.12606812 3.23136991 76 76 70
-3.35039012 -17.05922445 3.41221184 98 98 92
-3.19725236 -17.17952032 4.11495637 110 110 104
-3.08439367 -17.25315588 4.39106004 40 43 35
-3.16228027 -17.22707520 5.07400866 38 43 36
-3.18238831 -17.22723389 5.30084801 59 65 59
-3.37707520 -16.97265625 7.35283184 30 41 33
-3.17388439 -16.68721771 0.54858864 127 127 114
-3.13703064 -16.71604714 0.62925814 111 110 95
-3.29451810 -16.51246056 2.82391895 68 72 64
-3.32599725 -16.61093140 3.05782464 78 80 72
-3.34309118 -16.75134995 3.45313093 69 73 63
-3.35820177 -16.87494575 3.99527219 66 65 57
-3.17229716 -16.66581217 4.54935980 67 70 62
-3.12734375 -16.86624756 4.82631817 53 57 49
-3.31927490 -16.59533691 6.38331556 30 33 24
-3.15363973 -16.23224691 0.52879792 140 144 135
-3.15261425 -16.25097864 0.62519285 109 110 94
-3.27329000 -16.23701609 2.80105513 76 79 71
-3.26932571 -16.31052533 2.97174070 69 72 64
-3.20376846 -16.21145889 3.56696766 83 86 84
-3.09258364 -16.12540802 4.01878087 107 108 101
-3.10131073 -16.24880981 4.37994899 69 70 63
-3.14095688 -16.24508667 5.00676543 35 38 30
-3.24468994 -16.07446289 5.37174575 37 39 34
-2.93789673 -16.23620605 5.80889273 46 57 51
-3.37117004 -16.31115723 6.48456168 38 42 36
-3.35870361 -16.31506348 6.54251242 63 58 52
-3.10461426 -16.16613770 7.05300426 49 54 47
-3.13709127 -15.81762695 0.51535393 137 142 135
-3.19332741 -15.77622345 0.62383689 115 117 100
-3.20569458 -15.91398926 2.81562514 81 82 64
-3.32604980 -15.81774902 2.96890831 59 61 48
-3.06255493 -15.90941162 3.69176905 77 82 78
-3.01418888 -15.91852884 4.06462362 94 96 87
-3.30886841 -15.90441895 4.31200663 64 64 58
-3.01217270 -15.80836487 5.08996919 51 52 46
-3.11389038 -15.84621582 5.30671301 46 49 42
-2.96871948 -15.83752441 5.73725510 20 29 23
-2.93118286 -15.64978027 6.72731256 134 132 135
-3.15352402 -15.37749023 0.48791907 181 181 186
-3.16592757 -15.31910484 0.63004310 120 122 107
-3.14785767 -15.53063965 5.47346783 54 54 42
-3.17722994 -14.86147174 0.48105122 147 149 153
-3.15673638 -14.84664637 0.63693005 127 127 114
-3.20529842 -14.41614914 0.48594287 108 113 111
-3.18936559 -14.41412616 0.64477965 145 145 138
-3.16774423 -13.99076625 0.48326036 118 121 123
-3.16864131 -13.95932914 0.66716346 176 175 179
-3.10970800 -13.48047593 0.51386525 117 119 119
-3.20166743 -13.52698825 0.67822434 182 182 187
-3.12932587 -13.05863037 0.51422544 104 107 103
-3.20039990 -13.05322266 0.69199702 185 184 190
-3.14046021 -12.57349243 0.54132983 126 132 125
-3.18965632 -12.58555135 0.70156785 190 188 191
-3.13511242 -12.13867742 0.55139766 136 143 142
-3.18399605 -12.13219708 0.71185862 182 180 183
-3.13034058 -11.62917259 0.52815057 115 119 123
-3.23839742 -11.67720778 0.71061267 139 140 136
-3.18823878 -11.16248576 0.54519134 123 125 132
-3.20746213 -11.25094908 0.70419037 145 145 146
-3.17819805 -10.75092143 0.56095325 127 128 137
-3.24350808 -10.74881606 0.69732907 140 140 143
-3.14319763 -10.33504639 0.55075675 116 118 126
-3.23249776 -10.32083839 0.69579126 146 145 150
-3.15854454 -9.81844330 0.54575619 115 118 128
-3.22626430 -9.85341274 0.67374292 135 135 140
-3.16892916 -9.35372386 0.54697813 124 126 135
-3.17390228 -9.37206968 0.65858456 142 144 151
-3.14998206 -8.93482442 0.54420560 115 117 124
-3.06163052 -8.95203733 0.66033068 133 134 141
-3.13440680 -8.48870456 0.53195372 116 117 123
-3.13574004 -8.47817132 0.65736878 121 122 126
-2.95098877 -8.31726074 4.86848211 72 75 72
-3.15914622 -8.02780447 0.52074139 125 127 131
-3.14434430 -8.05596869 0.66381547 118 120 124
-3.10557770 -8.01875000 5.00375871 75 79 73
-3.14595676 -7.97094184 5.28741949 77 82 74
-3.14371365 -7.56026083 0.54912897 119 120 125
-3.22196377 -7.53070614 0.65795161 118 120 124
-3.17813110 -7.35021973 4.53205585 60 65 58
-3.15246695 -7.63218859 4.95764877 75 80 74
-3.27449951 -7.58197835 5.35948879 78 83 76
-2.94362386 -7.36429850 5.90972296 71 74 67
-2.97619629 -7.41625977 6.10006070 82 86 80
-3.14993621 -7.11657715 0.54788216 117 117 121
-3.15799926 -7.10018771 0.64173548 118 121 127
-3.06991403 -7.07584403 4.17459553 60 64 59
-3.09442482 -7.06281474 4.45265411 58 63 57
-3.10571824 -7.01760597 4.78959114 59 64 59
-3.13208618 -7.16625977 5.44247322 71 75 65
-3.11714239 -7.17726732 5.82306995 79 84 77
-2.93453979 -7.30065918 6.09481287 81 86 80
-3.14417635 -6.65926473 0.55977771 116 117 120
-3.11943383 -6.70213994 0.64199051 120 122 129
-3.26235962 -6.45361328 3.60171723 17 23 13
-3.15031651 -6.56726772 4.03108574 57 63 55
-3.20520595 -6.72770259 4.48289059 56 62 55
-3.17381911 -6.73201266 4.85036980 62 68 62
-3.14769804 -6.68248573 5.39356221 71 77 69
-2.99670919 -6.70180257 5.82053192 75 80 72
-3.21691625 -6.15918806 0.55396758 126 126 125
-3.15593001 -6.18398485 0.64482201 117 118 123
-3.06471252 -5.99784633 2.36370065 94 97 98
-3.23223190 -6.02288513 2.54757172 75 81 78
-3.03488305 -6.15221005 3.72983095 72 75 68
-3.15823946 -6.20137932 4.05817427 55 60 53
-3.21652904 -6.23336150 4.42484987 54 59 53
-3.14737902 -6.22265304 4.91039600 62 67 61
-2.98162842 -6.25671387 5.17014885 71 71 63
-3.22954250 -5.73467214 0.55549731 122 122 117
-3.14126172 -5.74914432 0.63557864 109 109 108
-3.13227962 -5.61184458 1.87322549 85 83 78
-3.13341911 -5.72463545 2.24285152 88 91 84
-3.12838018 -5.71444277 2.57713514 65 71 63
-2.97888947 -5.58214654 2.94094305 85 93 85
-3.22520770 -5.72678445 3.72441250 58 63 56
-3.24196723 -5.72941237 3.95184378 65 67 61
-3.24899583 -5.79767718 4.51634907 57 62 58
-3.17339325 -5.84611511 4.94239610 64 69 61
-3.15642756 -5.67023260 5.34050833 69 74 70
-3.31150600 -5.79316057 5.68023137 79 83 72
-3.27709961 -5.66357422 6.33018112 68 76 61
-3.10787426 -5.31031655 0.56188440 118 118 113
-3.05328334 -5.27762196 0.63381430 100 102 99
-3.25170244 -5.34850202 1.80445548 85 84 79
-3.19803802 -5.31186605 2.15468544 88 90 82
-3.16417640 -5.30421012 2.61967868 64 69 62
-2.97990018 -5.36884733 3.06521260 74 81 76
-3.00081635 -5.25379290 3.42562363 76 83 76
-3.28063965 -5.49209595 4.01321220 52 54 52
-3.19539388 -5.31437174 4.35131478 52 57 50
-3.23584493 -5.26767985 5.01825341 51 57 52
-3.24132143 -5.26767494 5.36045305 82 85 81
-3.24134318 -5.26920573 5.64328384 147 145 147
-3.15018209 -5.32682292 6.26990453 68 71 62
-3.07199097 -5.15264893 6.81248975 77 80 66
-3.02063676 -4.89149497 0.55332539 114 116 112
-3.10633047 -4.82834344 0.62527289 104 106 105
-3.32699115 -5.00313627 1.90133123 91 93 87
-3.26459351 -4.88711589 2.17186432 79 81 72
-3.28760810 -4.89355308 2.58442920 67 70 63
-3.21371683 -4.84852563 3.07577311 79 81 77
-3.09907837 -4.78045247 3.52584951 105 108 103
-3.22601929 -4.67861328 3.86580977 61 65 59
-3.16943359 -4.85492815 5.00475516 34 39 37
-3.10469301 -4.86258821 5.31626889 68 70 65
-3.35597229 -4.85180664 6.17553043 58 58 52
-3.03660583 -5.03576660 6.89729476 88 96 78
-3.06709257 -4.28823398 0.50672069 124 115 112
-3.17717429 -4.33760340 0.67357149 95 93 90
-3.27267151 -4.56883545 2.17997360 82 88 83
-3.23751068 -4.54986572 3.30220228 74 76 65
-3.13538470 -4.52701242 3.54384276 105 105 100
-3.13273239 -4.54568481 3.86704436 54 58 52
-3.33639526 -4.26241048 4.53758717 51 53 49
-3.22328186 -4.28009033 5.08608135 23 33 32
-3.27238770 -4.41535645 5.25187654 31 37 38
-3.05597534 -4.30732422 5.87501469 65 70 64
-3.16590881 -4.36376953 6.42549419 62 63 57
-3.18474562 -3.90887248 0.50566371 125 122 121
-3.25062844 -4.04708599 0.71882443 106 98 97
-3.31935628 -3.80718994 4.07911774 44 46 38
-3.31838820 -3.92620171 4.40740312 46 50 47
-3.23272705 -3.87921143 5.07791162 64 68 62
-3.27371894 -4.01220703 5.46937911 60 66 61
-3.15938327 -3.45545477 0.52146090 147 142 139
-3.17005831 -3.41950540 0.62473733 56 59 55
-3.28734480 -3.52563477 3.96328555 82 83 75
-3.29927063 -3.66687012 4.50673246 72 72 71
-3.26094360 -3.36044922 5.71981783 57 61 59
-3.18964233 -3.33684082 6.18741140 50 53 48
-3.12438650 -3.01955014 0.53591519 152 146 143
-3.18597481 -2.92127297 0.60401317 157 151 153
-3.36199951 -2.96142578 4.22467136 58 56 57
-3.10658112 -2.95948486 4.45941114 36 41 38
-3.15770652 -2.96375621 4.94132683 31 34 30
-3.08829753 -2.83923340 5.23984067 46 51 45
-3.18971507 -3.11368815 5.81139958 93 96 95
-3.11746733 -2.56200572 0.53272585 139 134 130
-3.14425806 -2.53449001 0.61121721 125 122 121
-3.32545471 -2.33422852 3.29058039 51 54 53
-3.19242534 -2.51474249 3.58996212 78 78 73
-3.14597796 -2.49097564 3.95155036 55 58 54
-3.18571590 -2.64052171 4.59343224 50 54 48
-3.25106812 -2.74670410 4.88636327 26 30 26
-3.06348674 -2.72827148 5.18126059 75 79 73
-3.17180481 -2.55796509 5.76801987 43 47 46
-3.09037087 -2.55115856 6.10643161 101 105 103
-3.11933789 -2.12001274 0.52666357 108 106 99
-3.16850801 -2.10930148 0.62179317 95 94 92
-3.34770064 -1.89241167 1.38016349 39 45 39
-3.34033936 -1.93452637 1.73697931 33 40 35
-3.33058294 -1.94148763 2.20799251 53 56 55
-3.33295059 -2.04050446 2.76267630 56 56 52
-3.30361239 -2.15586853 3.15967131 57 58 51
-3.16011181 -2.18912653 3.56814634 61 62 59
-3.17746989 -2.21811058 3.89732692 47 52 48
-3.05327352 -2.04899089 5.25345548 68 70 65
-3.19053141 -2.28601074 5.96355073 60 60 56
-3.22604370 -2.31152344 6.15224743 36 40 43
-3.15162718 -1.58785372 0.50362109 113 109 100
-3.26203904 -1.65306476 0.75963533 76 77 73
-3.31675151 -1.73406345 1.25641095 91 89 86
-3.32228490 -1.79302657 1.70410015 44 46 43
-3.17563667 -1.55361777 2.23758168 70 76 69
-3.14244648 -1.52469830 2.50530643 59 66 58
-2.97264117 -1.64436502 3.19153916 62 68 59
-2.95122095 -1.66788132 3.37573962 65 71 61
-3.24858856 -1.56195068 5.02296686 33 40 35
-3.18796609 -1.59631348 5.36919646 32 37 34
-3.15939331 -1.49792480 5.73695421 24 30 28
-3.18599289 -1.15671478 0.52814543 126 122 112
-3.17780606 -1.17501476 0.61230645 91 92 85
-3.08412453 -1.20084183 1.87146760 73 78 75
-3.16456138 -1.16744455 2.22888537 68 74 66
-3.15853153 -1.17387149 2.54216328 62 70 60
-2.95822754 -1.39368896 3.24014816 55 63 51
-3.11563721 -1.05030518 4.09436750 31 37 33
-3.13505445 -1.14847674 4.36249496 26 32 28
-3.23439654 -1.10900879 4.98423080 36 41 37
-3.27106934 -1.37224121 5.28584661 30 35 31
-3.27560425 -1.40112305 5.79862213 34 40 36
-3.14363403 -0.72435317 0.50994285 117 118 106
-3.20754440 -0.76787200 0.60921599 52 55 49
-3.15621185 -0.93695068 1.88636905 88 95 88
-3.13133240 -0.85432510 2.30222483 63 69 64
-3.11155217 -0.87125346 2.45425670 73 81 73
-3.16129074 -0.53859863 3.21055707 77 83 81
-3.15053885 -0.53895787 3.48591696 55 60 57
-3.13890221 -0.66089013 4.05010547 29 33 30
-3.14424049 -0.74063958 4.34413622 32 37 32
-3.09222031 -0.83029175 4.88803524 33 38 34
-3.26484172 -0.77799479 6.15331411 39 41 39
-3.16165093 -0.25858882 0.49463811 117 118 105
-3.12918396 -0.30872803 0.59968826 42 48 40
-3.29000473 -0.34968567 2.85563257 25 27 25
-3.23720319 -0.29646232 3.19370391 57 63 59
-3.20293879 -0.30660600 3.46697931 45 50 45
-3.27547721 -0.34911258 4.00684654 35 39 36
-3.28838094 -0.39925130 4.28860251 77 82 81
-2.99935913 -0.07482910 4.75403452 31 36 30
-3.31491089 -0.12768555 5.47599173 47 48 50
-3.12969971 -0.32873535 6.24726582 46 51 47
-3.15790722 0.18690376 0.47565408 122 121 108
-3.23438110 0.07617188 0.60822529 48 55 47
-3.36752319 -0.02380371 3.27162504 14 19 15
-3.24459076 -0.01254272 3.47613603 100 102 97
-3.09744263 0.33493042 4.10578310 38 41 35
-3.20569038 0.34007263 4.49999553 30 36 32
-3.33035889 0.19772949 5.06901579 35 37 35
-3.30675930 0.21176487 5.34871610 36 41 40
-3.14051929 0.65372221 0.47100148 113 112 100
-2.99584961 0.85083008 0.60819286 60 64 63
-3.00306384 0.64369202 3.66671777 41 48 42
-3.07794421 0.58417118 4.04603075 31 36 32
-3.18582669 0.56681716 4.36122352 27 33 29
-3.22174072 0.57971191 4.74293661 26 37 29
-3.17178037 1.09102411 0.46094133 116 115 104
-3.06790161 1.06225586 0.60187691 59 64 60
-2.93264771 1.24780273 6.21351767 37 37 35
-3.17589542 1.56988817 0.45516236 115 115 103
-3.22528076 1.43884277 0.59216058 48 51 40
-3.14796523 2.02083020 0.43330361 120 119 107
-2.94577026 2.21258545 3.96029234 28 31 28
-3.15688518 2.47621581 0.42274151 121 119 108
-2.98699951 2.47837321 0.62293349 53 57 48
-2.96140544 2.30497233 4.03077110 29 36 31
-3.18054635 2.59475272 4.51406121 33 38 34
-3.06076050 2.51491699 4.80333500 31 37 32
-3.08570862 2.61157227 5.27010441 36 44 38
-3.15156066 2.93026427 0.41027668 113 114 103
-3.05369059 2.90165202 0.60643222 50 61 46
-3.02489853 2.94481659 4.12313604 34 39 36
-3.01740938 2.95109289 4.40644807 35 40 36
-2.94567871 2.94738770 4.79858446 40 40 40
-3.15040046 3.39063836 0.40534807 119 118 107
-3.11942037 3.39001465 0.61222253 54 63 51
-2.99697876 3.20595296 4.10655634 31 36 36
-2.97174072 3.19348145 4.35971317 36 41 38
-3.15875184 3.83504186 0.38710989 134 130 121
-3.23092651 3.74633789 0.66741180 119 124 127
-3.35347290 4.46118164 0.09679294 90 91 89
-3.15734059 4.31245032 0.35451911 161 156 149
-2.92684937 4.26513672 0.64662218 49 51 40
-3.26250047 4.78286821 0.10332018 140 139 139
-3.18483199 4.75863454 0.29704714 136 134 134
-3.11322021 4.71710205 0.62973094 48 54 44
-3.20280620 5.23231179 0.09444766 157 157 159
-3.10187369 5.20802958 0.26200794 113 114 117
-3.10259445 5.66216476 0.09833206 172 172 175
-3.12696680 5.63730438 0.20981568 142 144 149
-3.15318371 6.15055920 0.07018035 138 141 145
-3.14525357 6.09396973 0.21127053 139 144 150
-3.15646473 6.54474210 0.07789169 131 134 138
-3.13967791 6.58884110 0.23975020 86 93 95
-3.14232702 7.06284365 0.07363116 130 133 136
-3.18022261 7.07628132 0.23848239 77 85 86
-3.14398295 7.51267497 0.07197364 128 130 133
-3.15652498 7.49570554 0.24062913 77 85 86
-3.14852518 7.92343612 0.07940781 116 119 121
-3.16082998 7.94053074 0.24243484 90 97 98
-3.13275926 8.37662847 0.08247551 98 102 104
-3.13857812 8.39531347 0.24289364 99 104 106
-3.16196217 8.88875086 0.09306571 82 87 88
-3.16043884 8.85813293 0.26882141 83 90 91
-3.13314819 9.37840616 0.09968244 81 86 87
-3.17011653 9.31829141 0.27443660 83 90 92
-3.11968613 9.82293701 0.10062199 86 90 92
-3.17571808 9.79710288 0.25043700 77 85 87
-3.14794783 10.26291726 0.07941790 87 92 93
-3.15014748 10.23162543 0.25622391 80 88 90
-3.13113658 10.75712077 0.10731850 90 95 96
-3.15786992 10.68808295 0.25964045 83 91 93
-3.14551459 11.23228624 0.07467796 85 90 92
-3.14507721 11.15670792 0.26452174 86 93 96
-3.12603760 11.60837131 0.10230390 86 91 92
-3.14520459 11.58682407 0.28101560 91 98 100
-3.12698942 12.02672350 0.06591180 81 86 89
-3.13753188 12.04863594 0.29441768 91 98 100
-3.14488572 12.43488018 0.10667228 83 88 91
-3.13807768 12.50212767 0.29686615 91 97 99
-3.14173584 13.01644287 0.09281812 88 94 96
-3.14544891 12.96411743 0.29853556 92 99 100
-3.14261627 13.40494537 0.08238890 89 94 96
-3.14176904 13.41543207 0.29673986 98 103 105
-3.16839818 13.91680036 0.08562625 89 94 96
-3.14063988 13.88226649 0.29443883 103 108 109
-3.13675537 14.39274902 0.07174887 88 93 95
-3.14680592 14.33105056 0.28684287 102 108 109
-3.15578003 14.82928467 0.09335937 88 93 96
-3.14640749 14.77890992 0.28642923 101 107 109
-3.16356277 15.17456055 0.07906212 88 92 96
-3.16480669 15.24340421 0.31161570 104 109 111
-3.15335693 15.62447510 0.09843155 88 94 97
-3.14340191 15.70426712 0.31523114 103 109 111
-3.15774197 16.19986979 0.10124042 87 92 95
-3.15484701 16.15146468 0.32088671 104 111 112
-3.12420185 16.72267503 0.11341741 89 94 96
-3.14477700 16.61138595 0.31507583 103 109 111
-3.13048706 17.08125000 0.12281678 87 93 94
-3.14573078 17.07357241 0.32275306 106 111 113
-3.16903409 17.54790705 0.11672370 88 93 96
-3.15457805 17.53536884 0.32187320 106 112 113
-3.13791911 18.10078939 0.11754371 89 95 97
-3.14510011 17.99759804 0.31504908 104 109 111
-3.10596042 18.54017470 0.11242243 111 114 112
-3.13952769 18.44799805 0.30666537 103 108 110
-3.19328526 18.80226353 0.11134350 161 158 151
-3.13973184 18.89026364 0.31459938 115 118 118
-3.15678555 19.32218375 0.30516496 161 158 152
-2.93917847 20.02844238 0.13307446 179 175 164
-3.15830362 19.82731892 0.34481475 201 193 185
-3.14294137 20.30022423 0.34224778 213 204 195
-3.15135477 20.73180428 0.34998259 214 205 195
-3.15681528 21.16938880 0.33047750 206 198 188
-3.14378549 21.65590804 0.32404529 195 187 177
-3.17799576 22.11312113 0.32700355 178 169 160
-3.14229887 22.57326188 0.32451343 176 167 158
-3.15994197 23.02872809 0.32563554 172 164 155
-3.15806529 23.46572808 0.33616952 165 158 150
-3.14226859 23.92595651 0.37319467 170 163 155
-3.15219138 24.37884350 0.39078074 175 168 161
-3.15093409 24.82856813 0.38177310 171 164 156
-3.13993309 25.29520881 0.38665676 190 185 177
-3.14985946 25.76068634 0.39523886 208 203 195
-3.15138206 26.22485352 0.39087165 191 184 177
-3.16000969 26.65308521 0.40555906 177 171 163
-3.16303340 27.11342232 0.39032848 164 159 152
-3.16521470 27.61669567 0.38301002 160 154 148
-3.15857188 28.06988130 0.37723481 155 150 144
-3.16281541 28.48904369 0.38835660 157 152 146
-3.14766062 28.95244339 0.38548829 155 151 146
-3.17047643 29.41492113 0.37985252 154 150 146
-3.15107880 29.85200857 0.38650958 152 148 143
-3.14095763 30.30923798 0.40136391 159 153 148
-3.21461487 30.12176514 0.59664136 198 186 174
-3.13981951 30.77147821 0.40598289 165 159 153
-3.09884644 30.68522135 0.59985465 200 188 176
-3.14494553 31.22878710 0.41268458 168 160 155
-3.18022156 31.28584798 0.59558904 200 188 176
-3.13839330 31.67979653 0.42193010 167 160 154
-3.07654190 31.69999695 0.59899408 196 184 171
-3.13827836 32.12635919 0.43884779 155 150 146
-3.24940796 32.03869629 0.61191080 199 186 174
-3.17765974 32.61412301 0.44037330 153 149 146
-3.16123454 32.55249023 0.62134874 200 187 174
-3.15206028 33.06653631 0.41349297 142 140 138
-3.14851781 33.50969682 0.40760713 139 137 136
-3.20725505 33.52620443 0.63244913 200 187 178
-3.14674788 33.96568563 0.41452656 137 136 133
-3.13412627 34.42153535 0.41811578 137 136 133
-3.15736560 34.86610781 0.41965791 133 132 130
-3.15846252 34.74145508 0.63205996 192 182 173
-3.14555294 35.33567903 0.42945554 125 125 122
-3.17203389 35.81121681 0.41189744 89 93 96
-3.18487549 35.77172852 0.63858724 189 181 170
-3.14796326 36.24354736 0.41014365 92 96 100
-3.12802657 36.70421875 0.41832345 91 96 99
-3.13772583 36.65026855 0.64132003 192 184 175
-3.19230342 37.17726889 0.42064307 91 95 98
-3.14001337 37.62389111 0.43124924 90 94 97
-3.22963460 37.46561686 0.63645474 162 158 155
-3.11847915 38.06899637 0.44028450 84 88 91
-3.26737976 38.02175903 0.59272678 67 75 79
-3.18240197 38.54484608 0.43882454 71 75 78
-3.14178467 38.37438965 0.64899790 178 175 168
-3.18002002 39.01137122 0.44931489 59 63 66
-3.33346718 39.13014623 0.62782159 74 77 76
-3.15494188 39.42810162 0.48821402 56 59 61
-3.23062134 39.47310341 0.65250604 60 64 65
-3.02375368 39.88585929 0.51499947 55 59 60
-3.14486077 39.89483276 0.65624863 65 69 71
-2.92900085 40.13476562 0.51187027 51 56 56
-3.15395403 40.33671171 0.64705470 65 69 72
-3.10181517 40.78863066 0.70170931 74 77 80
-3.06610662 41.28267045 0.65587103 67 70 74
-3.04387410 41.69349772 0.64323763 79 82 86
-3.30732727 41.92651367 6.97428656 92 91 87
-3.15999589 41.74912109 7.20752574 89 91 91
-3.15430162 41.75380046 7.65274501 86 91 94
-3.14963277 41.74978638 8.05536838 90 94 97
-3.12847028 41.80111258 8.49330330 61 66 68
-2.96621704 42.02868652 0.66337872 66 70 71
-3.23515320 42.29071045 6.97651029 88 87 83
-3.09335836 42.19384766 6.99693187 92 90 86
-3.08889771 42.02203369 8.31091261 86 92 94
-3.12182617 42.14125279 8.48425743 69 75 76
-3.17974091 42.60186768 6.97357166 89 88 84
-3.15413411 42.56559245 6.98867337 86 85 81
-3.20288086 42.66345215 8.77670670 55 59 60
-3.15209961 42.50158691 8.82870579 73 77 76
-3.12337821 43.07615444 6.96983235 91 90 86
-3.30781555 43.08300781 7.00948238 94 92 88
-3.36370850 42.88342285 8.82567692 55 59 62
-3.16067505 43.56311035 6.96336739 92 91 87
-3.14184570 43.39520264 7.00434351 96 94 90
-3.19432831 44.04391479 6.94393444 93 92 90
-2.96505737 43.85925293 7.00343037 91 90 86
-3.33845520 44.42431641 0.36790080 60 64 70
-3.19307709 44.51782227 6.95609939 92 91 90
-3.25922648 44.57641602 7.00470241 90 89 86
-3.29943237 44.81838379 0.39675131 70 75 76
-3.14329020 44.94677734 6.94728041 91 90 88
-3.18410145 45.39117987 0.40010322 74 79 80
-3.13163757 45.44421387 6.95559323 98 98 95
-3.22885132 45.46704102 6.98181677 94 93 91
-3.22120449 45.81922259 0.39762164 97 103 106
-3.18223953 45.85494995 6.96496075 96 95 93
-3.27133179 45.79797363 7.00403452 86 85 81
-3.14486367 46.25037493 0.39516382 108 109 110
-3.15334405 46.26711697 6.95009587 100 99 95
-3.04110718 46.20153809 7.00754309 88 87 83
-3.15057475 46.74270833 0.39441879 118 119 119
-3.16711426 46.64263044 6.94332184 99 98 94
-3.30352783 46.55224609 6.99550200 81 81 79
-3.12701416 47.20614188 0.38861682 139 139 140
-3.16867676 47.09277344 6.93156681 101 100 96
-3.16477203 47.60734049 0.39876399 122 123 124
-3.13932037 47.75375366 6.93135679 104 103 99
-3.14764913 48.14544678 0.39426829 117 117 119
-3.14737320 48.27650452 6.94139534 102 101 96
-3.14757658 48.56955438 0.37272009 119 119 121
-3.19162369 48.64602661 6.94679910 101 101 95
-3.14359484 49.04168380 0.38457587 120 122 124
-3.12091064 49.05362956 6.93447113 104 104 98
-3.17873510 49.50145976 0.35112626 127 128 130
-3.16041056 49.66398112 0.86040737 177 171 164
-3.06265259 49.63940430 1.42378891 137 137 128
-2.94784546 49.71264648 2.00864172 126 127 111
-3.14676980 49.45591108 6.91926059 124 118 113
-3.14437866 49.74570312 0.33077646 139 140 143
-3.21543503 49.76046753 0.85635760 149 143 134
-3.24524798 49.84971401 1.44634977 127 122 110
-3.14299774 49.75732422 1.98970309 83 77 75
-3.17189789 50.05584717 6.88887787 118 115 110
-3.18195343 50.34539795 0.34043424 106 107 108
-3.15604248 50.51804199 6.89499426 81 82 82
-3.09677124 50.91423035 0.35775593 126 125 129
-3.25639852 50.91670736 6.90915203 111 112 112
-3.16504342 51.26480539 0.33485731 132 131 135
-3.13259888 51.69479370 0.31317151 142 141 146
-3.15237427 52.34566243 0.30201012 145 143 150
-3.09954834 52.75286865 0.36707640 109 110 113
-3.14804077 53.01633301 0.29989142 138 139 143
-3.09603543 53.70918783 0.26346716 146 147 149
-3.23332977 53.91464233 0.25115420 148 150 152
-3.13696289 54.49188232 0.33033000 112 114 118
-3.15150452 55.98922119 0.27880551 121 120 124
-3.19000244 56.30034528 0.27219326 121 120 124
-3.14338175 56.75443522 0.26503647 123 121 124
-3.17093913 57.61580404 0.24767017 133 129 130
-3.11796570 58.15039062 0.23444848 242 242 242
-3.35906982 57.97436523 6.50411034 103 103 91
-3.19638824 58.51269531 0.22585969 248 248 247
-3.30126953 58.65051270 6.50801134 127 119 108
-3.32221985 58.46258545 6.64114356 110 110 95
-3.33768717 60.17716471 5.99572579 130 128 108
-3.17890082 59.95589193 6.79313556 142 138 120
-3.33566284 60.21887207 5.85549021 161 159 134
-3.22277069 60.27810669 6.64141107 133 127 115
-3.36911011 61.28247070 6.79707241 116 113 104
-3.18954468 63.78088379 5.33528948 137 120 113
-3.25695801 63.59484863 5.71365786 148 141 125
-3.25000000 64.13533529 5.43616454 138 121 113
-2.67419895 -58.09148477 1.42274681 70 71 70
-2.67502190 -58.12753715 1.74358672 76 78 77
-2.68431777 -58.20645891 2.02152759 105 107 106
-2.69184579 -58.20264721 2.57586032 100 100 96
-2.69480908 -58.19907453 3.14565655 93 90 83
-2.68663462 -58.20080207 3.71454027 117 115 108
-2.71090088 -58.18194173 4.09167660 175 168 158
-2.68912155 -58.19631348 4.31415494 151 145 136
-2.89625101 -57.99159151 1.45959526 67 68 66
-2.90234375 -57.98962402 1.51950230 72 73 73
-2.71004571 -56.28177897 1.11982209 36 38 35
-2.61307846 -55.82317918 1.03146330 59 61 49
-2.71625734 -56.00091553 1.07699460 54 56 46
-2.72008769 -55.54033407 1.03052398 64 65 53
-2.69664510 -55.44489397 1.06267060 53 58 48
-2.62598211 -55.08000044 1.03323772 62 63 53
-2.68346863 -55.07221069 1.07926915 54 59 49
-2.70832062 -54.57693481 1.02504967 55 58 51
-2.70008196 -54.58131627 1.06725992 60 65 55
-2.70335671 -54.05239755 1.08016770 66 69 60
-2.76025391 -53.57173665 1.06530531 64 68 57
-2.49786377 -53.39147949 1.06525338 73 76 65
-2.67110189 -52.80708822 1.08003306 90 89 81
-2.88860067 -52.69490560 4.12540674 72 74 69
-2.89508247 -52.71067047 4.35626665 111 111 101
-2.90132650 -52.64152018 4.75652154 196 195 184
-2.65564473 -52.33428955 1.06943977 104 101 95
-2.91213989 -52.24438477 3.78389859 195 182 173
-2.87747765 -52.27320862 3.91516232 125 120 113
-2.77975464 -52.10400391 4.38804054 65 71 61
-2.58369954 -51.99320475 1.06131347 93 92 88
-2.82911028 -51.94665527 3.91120754 42 46 42
-2.82323456 -51.79989963 4.47430986 77 78 74
-2.88385446 -51.45077079 4.20934677 49 52 48
-2.87527038 -51.50128709 4.53587930 83 82 76
-2.67280458 -50.78493004 0.94527760 82 82 78
-2.79510819 -50.56312802 0.92228404 86 85 82
-2.70529693 -50.09505362 0.88287661 88 91 89
-2.67522116 -49.58126293 0.86386201 92 94 94
-2.88510437 -49.52243652 1.84628384 72 70 68
-2.87113131 -49.42593149 2.28910862 121 94 85
-2.86746407 -49.44407272 2.65332621 76 71 72
-2.89582473 -49.46213942 3.08414958 94 93 89
-2.84675720 -49.45790039 3.61857755 101 100 97
-2.85166982 -49.46323853 4.01636088 91 91 90
-2.88009983 -49.53535970 4.30377637 72 74 72
-2.69930522 -49.08001709 0.85039250 82 84 84
-2.85309710 -48.91699219 1.40303129 61 56 51
-2.69826182 -49.09684003 1.83895417 60 58 57
-2.71097412 -49.05446520 2.23013575 96 95 92
-2.75791960 -49.10688638 2.64722458 97 96 94
-2.77399874 -49.08391647 3.06606027 112 109 103
-2.74656107 -49.09713047 3.51685808 116 114 111
-2.72639503 -49.09798252 3.98527229 121 121 121
-2.72392397 -49.07365459 4.28512188 101 102 101
-2.69169312 -48.60483398 0.84963254 80 80 80
-2.81592295 -48.73340965 1.44778652 53 49 45
-2.62178688 -48.64413313 1.80340188 68 68 66
-2.57475669 -48.61821400 2.24279696 105 103 99
-2.59007184 -48.62842007 2.65179417 113 110 105
-2.59680808 -48.63769676 3.07168511 117 113 107
-2.57905252 -48.66515267 3.51693225 116 114 110
-2.55867461 -48.66872683 3.99465504 126 126 125
-2.53690414 -48.67380371 4.28558325 108 108 105
-2.66249254 -48.11055131 0.82776706 102 103 100
-2.62193744 -48.13483800 1.42594897 43 42 39
-2.61740616 -48.17084558 1.63153365 50 50 46
-2.49418574 -48.32116699 2.25955271 107 104 100
-2.49517822 -48.34252930 2.63398900 112 110 104
-2.49474080 -48.34701683 3.06264500 118 113 106
-2.51893659 -48.28265555 3.42003514 115 111 105
-2.49225963 -48.37344638 4.05831859 137 137 135
-2.69640669 -47.73315237 0.82282724 119 119 115
-2.67072298 -47.70270823 1.40532082 33 36 36
-2.69587061 -47.78261484 1.54665074 33 36 36
-2.70828890 -47.27797154 0.81438984 138 138 134
-2.79407369 -47.23642023 1.25733575 44 46 45
-2.54825805 -47.09125530 1.82520469 62 65 66
-2.55409169 -47.08978127 2.17003113 120 125 126
-2.54357871 -47.08257998 2.65763197 120 123 125
-2.51217607 -47.06711496 3.07009887 122 126 127
-2.54662965 -47.08398575 3.50843455 115 120 121
-2.58364496 -47.09533245 3.97573450 115 119 122
-2.70073395 -46.89192261 0.80994882 122 121 118
-2.72705158 -47.02264083 1.39491378 39 42 43
-2.73887393 -46.98113147 1.83607855 76 78 79
-2.73307151 -46.97495724 2.19997324 110 112 113
-2.73347639 -46.97602299 2.64638398 116 119 120
-2.72057740 -46.96716640 3.09529728 126 129 130
-2.71215430 -46.96345495 3.56287889 108 111 112
-2.70046325 -46.95188465 4.02001183 119 121 122
-2.66598511 -46.94026067 4.25123538 95 97 97
-2.66691975 -46.36050449 0.78815713 142 142 140
-2.72953962 -45.92783880 0.78682462 139 141 139
-2.66325155 -45.37987537 0.76607088 132 126 121
-2.67255219 -44.96507731 0.75915607 137 135 131
-2.70081771 -44.59254513 0.74317720 135 133 130
-2.72296607 -44.11138916 0.72719934 136 133 130
-2.66654176 -43.55815234 0.72087660 145 144 140
-2.69372321 -43.17980957 0.71257127 150 149 146
-2.82254028 -42.59350586 0.58983433 111 110 105
-2.69468438 -42.72529424 0.69914502 152 151 147
-2.68290635 -42.23167785 0.68546727 149 148 144
-2.70552574 -41.85167847 0.67513031 165 163 160
-2.71673584 -41.26489258 0.58695829 116 118 117
-2.66800744 -41.31918755 0.66740388 153 152 149
-2.69473794 -40.88281511 0.65000747 149 148 144
-2.70571047 -40.45829710 0.64254418 123 122 119
-2.78539058 -40.16076660 0.64762734 109 108 103
-2.53446147 -39.32227783 0.79337277 114 114 113
-2.68966787 -39.05571638 0.79627786 113 113 109
-2.58754539 -38.43753052 0.57226227 103 105 102
-2.62906509 -38.51265011 0.75081905 66 68 68
-2.66840704 -38.09117141 0.57606933 106 105 103
-2.75037400 -38.27052612 0.68648906 55 58 56
-2.67593294 -37.66229707 0.56307620 106 107 107
-2.67582963 -37.70880436 0.60758674 90 91 89
-2.68648364 -37.23781941 0.55253512 95 97 97
-2.70314362 -37.28995423 0.60192004 94 95 92
-2.68270862 -36.77424401 0.54420681 82 86 86
-2.70310747 -36.82161631 0.59973664 91 91 89
-2.70539846 -36.33076966 0.53154785 81 84 83
-2.77275085 -36.49198405 0.59342495 83 83 81
-2.68817139 -35.86085471 0.53266740 71 74 73
-2.70542822 -35.39317555 0.51275450 66 69 69
-2.69212850 -35.59883626 0.60248061 77 78 74
-2.69251338 -34.96553859 0.48814378 70 72 71
-2.65515900 -34.75042725 0.69863552 80 70 67
-2.60754395 -34.73303223 1.06479454 76 67 62
-2.65026279 -34.47952519 0.46077070 94 81 77
-2.52688289 -34.55704784 0.73762753 104 83 78
-2.48131816 -34.57301839 1.09192630 118 80 65
-2.69194924 -34.04145090 0.43192519 88 90 88
-2.69821352 -33.58169791 0.41677338 87 88 88
-2.68576063 -33.12648017 0.40622659 70 74 75
-2.69485722 -32.67996970 0.37930205 79 82 82
-2.70423440 -32.21011434 0.35516443 88 90 89
-2.62290092 -32.18418818 0.87606043 94 99 102
-2.64697944 -32.13319227 1.34614916 100 102 103
-2.59286499 -32.19226074 1.73188624 54 58 61
-2.70240787 -31.75708713 0.34067049 86 88 88
-2.68309970 -31.75691512 0.86948643 86 90 92
-2.71487201 -31.75855849 1.30500957 120 122 125
-2.66753769 -31.74517059 1.70194423 60 65 68
-2.68257860 -31.28965209 0.32610520 85 87 86
-2.69324390 -31.29850480 0.84906365 72 77 79
-2.67883433 -31.28222126 1.29822345 104 108 110
-2.64587402 -31.26144748 1.73155309 64 73 76
-2.68967998 -30.84704872 0.29630298 80 83 82
-2.69141218 -30.84870063 0.84387859 80 85 86
-2.67343267 -30.82208761 1.26077133 113 117 119
-2.70322091 -30.89186314 1.73233895 58 66 67
-2.80405680 -30.64611816 1.99596989 55 62 64
-2.69298215 -30.38680070 0.27687017 83 86 83
-2.68337641 -30.36822956 0.83663503 72 76 75
-2.68321961 -30.35036399 1.30163236 78 81 80
-2.67590942 -30.41323242 1.64236140 32 38 35
-2.70486995 -30.40507725 1.99475139 32 35 36
-2.69225679 -29.93387193 0.24502277 97 98 94
-2.85748901 -30.13264160 0.85673591 59 61 61
-2.86617388 -30.10432652 1.32025833 76 78 79
-2.52227173 -29.90190430 4.88981714 69 70 63
-2.67574783 -29.46784979 0.24438477 72 75 72
-2.53752645 -29.63903809 4.60168362 174 165 163
-2.56384277 -29.26477051 5.13946629 123 118 112
-2.69288635 -29.38311768 5.17407632 46 46 48
-2.69030779 -29.00680560 0.36326536 70 72 65
-2.57148391 -28.85126202 3.27318021 67 71 64
-2.59818337 -28.85896995 3.36862477 88 86 81
-2.61246745 -29.04504395 4.62894710 51 55 50
-2.59529530 -28.93985263 4.87807743 94 95 91
-2.68872070 -29.22961426 5.32486248 28 28 28
-2.69091032 -28.55155376 0.40037993 64 67 58
-2.51908958 -28.44442174 2.74988314 76 79 72
-2.59766702 -28.63765043 3.24540323 74 77 70
-2.68507385 -28.69170612 3.38132185 66 68 64
-2.49041748 -28.60556030 4.62621224 86 84 78
-2.55972290 -28.65358373 4.92862210 86 87 81
-2.66470337 -28.61865234 5.48936367 74 78 77
-2.54734802 -28.59127808 5.96596467 90 94 96
-2.69522084 -28.11026397 0.44685805 63 68 58
-2.56530762 -27.95800781 0.60808843 83 89 75
-2.50293732 -28.13647461 2.40492392 90 91 77
-2.49461829 -28.13014553 2.53266259 103 105 99
-2.54485252 -28.03734242 3.56951621 132 135 129
-2.63355509 -28.16210938 5.42756494 53 57 54
-2.67614767 -27.64477622 0.50239878 67 72 62
-2.69627126 -27.51883613 0.62676049 57 60 53
-2.51067437 -27.46500651 2.37781850 100 99 94
-2.73341281 -27.54396613 2.58060463 87 90 83
-2.64033454 -27.56492615 3.17898483 82 84 79
-2.62313988 -27.62460618 3.47749468 82 84 78
-2.68584442 -27.48165894 3.95541996 143 143 138
-2.80786514 -27.44906616 4.45443881 72 73 68
-2.60449219 -27.47139486 4.88279279 51 53 49
-2.52819824 -27.47668457 5.34451628 70 76 72
-2.66454010 -27.18528317 0.54557603 90 92 84
-2.64245802 -27.22612392 0.64253607 56 60 54
-2.58057818 -27.30473033 2.38554059 92 93 86
-2.69221883 -27.27140821 2.58238589 90 93 86
-2.60730728 -27.20952217 3.03064038 84 85 79
-2.70173354 -27.25496922 3.55930837 69 72 66
-2.78781233 -27.16447922 4.09116219 74 75 70
-2.68628631 -27.18252811 4.46356885 53 56 52
-2.66959599 -27.13000924 4.79543560 56 58 52
-2.52005005 -27.25939941 5.47226143 43 44 38
-2.59764099 -27.10098267 5.88424182 35 37 33
